-0.535595 1.369830 -0.032035 
-0.523660 1.379580 -0.039852 
-0.147153 1.223350 -0.774298 
0.380810 1.420060 -0.041469 
-0.505246 1.432300 -0.044587 
-0.508483 1.419320 -0.036750 
-0.387475 0.625142 0.142869 
-0.387703 0.607778 0.144770 
-0.395637 0.620646 0.156432 
0.455332 1.459370 0.352652 
0.392300 1.382860 -0.051641 
-0.492816 1.406420 -0.057831 
-0.511067 1.448040 -0.042024 
1.085780 1.647710 -0.799198 
-1.082930 1.606760 -0.779137 
-0.956785 1.232180 -0.046920 
-0.421872 -0.462265 0.146609 
0.455775 -1.057760 0.379289 
-0.098458 0.093980 0.680881 
-0.099458 0.082366 0.694698 
-0.461541 1.492600 -0.035172 
-0.446699 1.494130 -0.046078 
-0.625860 1.205360 0.229613 
-0.434440 1.502170 -0.039803 
-0.185536 0.090309 0.153062 
0.791957 1.195320 0.140097 
0.803020 1.180950 0.138788 
-1.116430 1.369710 -0.287160 
0.432505 0.377352 0.273409 
0.328870 1.553770 -0.019659 
-0.366702 1.571680 -0.043981 
-0.377682 1.561150 -0.037574 
-0.355813 1.580350 -0.050216 
-0.344554 1.588390 -0.056674 
0.273960 1.610750 -0.046031 
0.267982 1.629020 -0.045655 
0.261556 1.646230 -0.039744 
0.612593 -0.581752 0.180413 
0.288095 1.592480 -0.023574 
0.501356 -1.061390 0.397218 
0.290943 1.590700 -0.007041 
0.424348 -0.104784 0.436163 
0.408545 -0.108762 0.435282 
0.170024 1.734040 -0.030786 
0.129217 1.748910 -0.046551 
-0.223133 1.417500 0.692072 
-0.236353 1.417600 0.683920 
-0.246271 1.404820 0.685961 
0.428827 0.863273 -0.070453 
-0.544363 -0.507619 0.428019 
-0.551757 -0.519902 0.435066 
-0.071177 1.781540 -0.035166 
-0.085178 1.778250 -0.043918 
0.054684 1.782490 -0.029507 
-0.801155 -0.591247 0.131970 
-0.142517 1.779980 -0.032935 
-0.113603 1.784390 -0.029550 
-0.099192 1.782020 -0.036892 
0.880015 1.242630 0.023202 
0.863478 1.247900 0.024367 
-0.534842 -0.171125 0.002755 
-0.531054 -0.176745 0.013543 
-0.547272 -0.173390 -0.004441 
-0.998486 -1.062440 -0.022971 
-0.798595 -1.071550 -0.025004 
-0.807543 -1.071550 -0.009965 
0.423461 1.465840 0.443401 
1.231560 1.476950 -0.772002 
0.451733 -0.122286 0.427534 
0.619402 1.221710 0.257674 
-0.829651 -1.060690 -0.019860 
-0.828528 -1.064500 -0.052490 
0.260895 1.394450 0.669482 
0.243107 1.398690 0.679016 
-0.051126 0.072592 0.755060 
-0.937588 -1.060730 -0.035914 
-0.274953 0.914016 0.696759 
-0.074279 0.081749 0.730215 
0.562427 -1.038070 -0.021109 
-1.114550 1.191970 -0.819983 
-0.842789 -1.039470 -0.021131 
-0.001870 -0.054785 0.987234 
0.128507 0.040470 0.265844 
0.669195 -1.041790 -0.033041 
0.678113 -1.028170 -0.036626 
0.333588 -0.041785 0.455490 
0.318532 -0.039065 0.451273 
-0.839027 -0.875868 0.287727 
0.366826 -0.423115 0.479487 
-1.012850 -1.033980 -0.027180 
-1.020240 -1.033600 -0.044629 
-1.017170 -1.045610 -0.035215 
-0.894038 -1.014910 -0.024362 
-0.902883 -1.027630 -0.033127 
0.441629 1.497370 0.239622 
0.447453 1.481100 0.245583 
0.446289 1.484150 0.229362 
-0.550702 1.292650 0.458838 
-0.821598 -0.990462 -0.039534 
-0.689997 0.262216 0.254499 
-0.697133 0.250821 0.242020 
-0.581679 1.316500 0.339504 
-0.519618 1.391890 -0.027449 
-0.529267 1.394490 -0.013081 
0.389474 0.210648 0.473684 
-0.699088 0.956624 0.128373 
-0.769311 -0.956203 -0.032258 
0.051910 -0.010064 0.688907 
0.048403 -0.024470 0.698459 
0.032049 -0.039983 0.684181 
-0.762419 -0.263443 -0.039547 
0.333513 1.814010 -0.486790 
-0.742414 -0.273605 -0.027240 
-0.465631 0.347473 0.452376 
0.056014 0.083686 0.162197 
-0.806670 -0.249372 -0.033328 
-0.798559 -0.238941 -0.041965 
0.625765 -0.336084 -0.013401 
0.616132 -0.306205 -0.027604 
0.637077 -0.322988 -0.013171 
0.637896 -0.284902 -0.020690 
0.624307 -0.291222 -0.027961 
0.628109 -0.272005 -0.025985 
0.403217 1.214350 0.604836 
-0.980725 -0.978391 -0.065958 
-0.592539 0.258723 0.446765 
0.130205 0.070491 0.133664 
0.114116 0.072676 0.132536 
0.309122 -0.867967 0.400148 
-0.696678 -0.215747 -0.037892 
-0.682128 -0.203808 -0.033963 
-0.684331 -0.222119 -0.031708 
0.352423 -0.021560 0.468974 
0.348235 -0.036756 0.461407 
0.364768 -0.032816 0.464394 
-0.652986 -0.044137 -0.047438 
0.022002 -0.054020 0.683858 
-0.371103 -0.129485 0.185921 
0.148529 1.733670 0.406206 
0.507035 -0.172707 -0.042110 
0.519647 -0.159450 -0.046168 
0.528972 -0.171841 -0.043364 
-0.568376 1.357760 0.342762 
0.453676 -0.415391 0.064069 
0.456897 -0.429349 0.061030 
-0.826524 -0.181890 -0.028938 
-0.454293 -0.048556 0.462628 
0.487999 -0.167406 -0.040660 
0.470980 -0.160287 -0.038570 
0.433986 -0.025896 0.468892 
-0.247957 1.706260 0.400471 
-0.807926 -0.225708 -0.040710 
0.385981 -0.839755 0.303655 
-0.680545 -0.185307 -0.036547 
-0.687754 -0.169553 -0.040396 
-0.752535 -0.248957 0.280749 
-0.766231 -0.255738 0.274209 
-0.682439 -0.152489 -0.039754 
-0.664107 -0.148145 -0.039008 
-0.658828 -0.162708 -0.036220 
0.691348 0.017000 0.214608 
0.206661 1.630280 -0.299228 
0.687210 0.047607 0.189160 
0.099331 1.662510 0.560669 
-0.695740 -0.141294 -0.042963 
0.364013 0.252099 0.469164 
0.377339 0.711708 0.262102 
0.378227 0.717956 0.279444 
-0.816727 -0.149805 -0.031324 
-0.802006 -0.144133 -0.039709 
0.439472 -0.144932 -0.031505 
0.453446 -0.134894 -0.037530 
0.455556 -0.152079 -0.035538 
0.466520 -0.122976 -0.042863 
0.448609 -0.119524 -0.040840 
0.564944 -1.019090 -0.032377 
0.013624 0.117485 0.281257 
0.012448 0.112424 0.251952 
0.194345 1.501330 0.653453 
0.044009 1.768240 0.383953 
-0.539380 -0.029472 0.464135 
-0.531546 -0.042246 0.457763 
-0.524753 -0.028756 0.465451 
-0.034898 0.826899 0.686662 
-0.020753 0.816000 0.682618 
-0.028373 0.843131 0.690528 
-0.703480 -0.126646 -0.040914 
-0.690164 -0.125507 -0.038397 
0.083759 0.877924 0.687922 
-0.645269 -0.382161 0.425253 
-0.749232 -0.113664 -0.039827 
-0.737232 -0.101297 -0.032584 
-0.728536 -0.128411 -0.048693 
0.439539 -0.104253 -0.042769 
0.420676 -0.126348 -0.031860 
-0.788095 1.064510 0.155040 
-0.773885 -0.099941 -0.027116 
-0.766128 -0.113353 -0.037912 
-0.574091 -0.108325 -0.038752 
-0.564394 -0.119867 -0.033765 
0.364473 1.812160 -0.465644 
-0.717396 -0.117972 -0.040342 
-0.688266 -0.108595 -0.040483 
1.187730 1.442590 -0.796629 
-0.458050 -0.114214 0.013583 
-0.456370 -0.115287 0.029343 
-0.468335 -0.125329 0.020672 
0.282696 -1.035420 0.608226 
-0.594475 0.243876 0.453992 
-0.567497 -0.094693 -0.040444 
-0.550244 -0.089599 -0.038651 
-0.555673 -0.106192 -0.034779 
0.378354 0.220218 0.468157 
0.370374 0.235682 0.467352 
-0.096366 1.258050 -0.781326 
0.256572 -0.467412 0.262703 
-0.309150 1.772050 -0.495568 
-0.819779 -1.067910 0.005963 
-0.835124 -1.059460 0.013722 
-0.831825 -1.058300 -0.001687 
-0.767281 0.082364 0.269802 
-0.532696 -0.083684 -0.035097 
0.572408 -0.072430 -0.040326 
0.055155 0.075571 0.274239 
0.051297 0.076683 0.255209 
0.154301 0.030875 0.168019 
0.073377 1.315000 -0.704922 
0.392031 -0.041189 -0.036197 
0.388596 -0.070655 -0.032399 
0.687364 1.079190 0.265593 
0.547506 -0.999276 0.015581 
-0.532045 -0.048341 -0.038644 
-0.515819 -0.040295 -0.037838 
-0.507680 -0.064574 -0.030625 
0.281818 -1.060980 0.565804 
-0.528197 0.260877 0.467369 
0.269621 -0.586373 0.233712 
-0.604700 -0.045180 -0.050948 
0.184014 0.901661 0.690988 
0.170582 0.896022 0.696453 
-0.718996 -0.044182 -0.036112 
0.314591 -1.066740 0.572110 
-0.681473 0.108823 0.003902 
-0.316607 1.799440 -0.517868 
-0.685913 0.095307 -0.000407 
0.589672 -0.893616 0.239411 
0.603088 -0.899235 0.234680 
0.595676 -0.895691 0.222018 
-0.027048 0.137297 0.231103 
-0.499300 -0.035023 -0.034874 
0.395947 -0.006804 -0.041041 
0.394747 -0.023883 -0.039405 
-0.712298 -0.030880 -0.036941 
0.816961 1.113820 0.145943 
0.825581 1.126440 0.136541 
-0.706428 -0.019600 -0.039386 
-0.694644 -0.032970 -0.042758 
-0.726633 -0.763360 0.148407 
0.691631 1.137600 0.260738 
0.686394 1.152650 0.262817 
0.676122 0.043079 0.257650 
0.672539 0.059505 0.259657 
0.101687 0.740229 0.633051 
-0.020201 -0.109379 1.068530 
-0.088817 0.161914 -0.012490 
-0.097047 0.178584 -0.012453 
-0.084630 0.176402 -0.020810 
0.557683 -0.011432 -0.033677 
0.544531 -0.001210 -0.035013 
-0.790695 0.071338 0.157254 
-0.792670 0.055393 0.156266 
-0.789983 0.061094 0.169114 
-0.482184 -0.011956 -0.034615 
-0.500896 0.006500 -0.040757 
-0.482685 0.006743 -0.038555 
-0.706409 -0.005202 -0.038610 
0.481529 0.028791 -0.048057 
-0.515332 0.014405 -0.040945 
-0.703120 0.010927 -0.036003 
-0.698223 0.024556 -0.032010 
-0.102044 1.245390 -0.811485 
-0.481911 0.023854 -0.039390 
-0.466573 0.013859 -0.034951 
-0.250798 0.871716 0.696498 
-0.323819 1.651380 0.396727 
-0.658772 0.032205 -0.042703 
-0.643666 0.039376 -0.044708 
0.274738 0.925278 0.658978 
0.281635 0.901594 0.646471 
-0.569848 -0.146113 -0.028287 
-0.585077 -0.152987 -0.030522 
-0.495619 0.036706 -0.040279 
-0.479708 0.042040 -0.038495 
0.268012 0.894356 0.653349 
0.291304 0.894259 0.636963 
-0.455204 0.029903 -0.032270 
-0.449023 0.016465 -0.029285 
-0.630748 -0.161711 -0.033712 
-0.602206 -0.159319 -0.030473 
-0.671012 0.041393 -0.037663 
0.681471 1.038210 0.262413 
0.687398 1.052020 0.261941 
0.501808 0.973497 -0.096655 
-0.402765 0.645888 0.222375 
-0.747202 -0.467764 0.433156 
-0.757697 -0.483329 0.428238 
0.515285 -0.127889 0.408353 
-0.626859 0.046981 -0.043444 
-0.610481 0.053804 -0.041575 
-0.667822 0.057715 -0.034363 
0.393601 0.053566 -0.036681 
0.410633 0.058750 -0.037892 
0.471571 0.060427 -0.039729 
0.476202 0.044463 -0.044152 
0.444510 0.053369 -0.040393 
0.459800 0.049540 -0.042364 
-0.613073 0.069308 -0.039434 
-0.594327 0.059984 -0.040812 
-0.567246 0.071640 -0.040479 
-0.574806 0.058448 -0.042087 
0.248095 1.195860 0.732727 
0.355166 0.771366 0.460825 
-0.473374 0.058096 -0.035105 
-0.462950 0.045375 -0.034356 
0.439245 0.070585 -0.039015 
0.455805 0.065932 -0.039919 
-0.485144 0.068689 -0.034973 
-0.466139 0.074338 -0.030870 
0.408005 0.073070 -0.036670 
0.423450 0.072615 -0.037571 
0.432409 0.087915 -0.036840 
0.469185 0.077029 -0.037946 
0.519172 0.167774 0.458603 
0.510789 0.183596 0.457480 
-0.632609 0.075720 -0.034842 
-0.628566 0.061959 -0.039439 
-0.503627 0.066194 -0.039170 
0.476907 0.091022 -0.034337 
-0.635798 0.090653 -0.029963 
-0.618509 0.085216 -0.035319 
-0.494833 0.082455 -0.035306 
-0.501242 0.099896 -0.034666 
-0.485441 0.097980 -0.032237 
0.418830 0.101387 -0.033133 
-0.574464 0.088710 -0.037921 
-0.255295 1.628910 0.526977 
-0.193354 0.147263 0.461412 
-0.180090 0.152569 0.454912 
-0.205418 0.005675 0.266703 
-0.216238 -0.001958 0.253956 
-0.035691 0.181304 -0.029961 
-0.101721 0.554108 0.637016 
0.413555 -1.069960 0.136117 
0.427356 -1.068600 0.160837 
0.412971 -1.069310 0.171903 
-0.132224 0.258775 -0.034368 
-0.122044 0.264895 -0.045853 
-0.122766 0.246031 -0.043583 
0.050952 0.243935 -0.029221 
0.042979 0.230217 -0.032471 
-0.451461 -0.693172 0.238678 
-0.454117 -0.709442 0.241356 
0.052436 0.231693 -0.018619 
0.412728 1.353660 0.559490 
-0.613842 0.164130 0.466961 
-0.630423 0.138158 0.457353 
0.063115 0.286901 -0.044636 
0.071980 0.301204 -0.044806 
-0.640140 0.152604 0.450394 
-0.725403 -1.013930 0.437874 
-0.730240 -0.996548 0.435043 
0.259083 -0.529808 0.389346 
-0.145039 0.302930 -0.036681 
0.051761 0.273751 -0.043201 
0.062926 0.274924 -0.031792 
-0.158470 0.369896 -0.039271 
-0.159103 0.384085 -0.043106 
0.176424 -0.018124 0.264753 
0.625699 -0.068538 -0.002923 
0.639252 -0.072790 0.010334 
0.119327 0.389857 -0.039533 
0.133963 0.386793 -0.035491 
0.124591 0.374507 -0.035639 
-0.173683 0.391420 -0.037053 
-0.376593 0.581875 0.456255 
0.381147 -0.382076 0.461606 
0.145011 0.411823 -0.034755 
0.160876 0.401150 -0.030161 
0.141373 0.429507 -0.034872 
-0.503854 -0.668238 0.129768 
-0.202018 0.442652 -0.037445 
-0.397072 1.235570 -0.268077 
-0.200425 0.457553 -0.038913 
0.424058 1.311170 0.558825 
-0.063675 1.776000 0.371233 
-0.025833 1.766400 0.400493 
0.086482 0.129888 0.476415 
0.139594 0.462383 -0.038454 
0.153859 0.463731 -0.031472 
0.147208 0.446579 -0.033042 
1.216600 1.183660 -0.266948 
0.073112 0.122827 0.464551 
-0.472141 -0.342306 0.156976 
-0.634778 1.283460 0.131451 
-0.649409 1.279890 0.133986 
-0.220886 0.473405 -0.037003 
-0.223988 0.489493 -0.036825 
0.159542 0.479446 -0.028428 
0.152610 0.495603 -0.032165 
0.163860 0.494118 -0.022658 
-0.748906 -0.308112 -0.003017 
-0.735737 -0.312800 -0.003322 
-0.403069 0.928229 -0.243063 
-0.388969 0.953210 -0.260717 
-0.008843 1.736610 0.472422 
-0.024782 1.737690 0.469239 
-0.489991 0.904953 0.459322 
-0.480237 0.889137 0.461004 
-0.420229 0.970997 -0.240677 
0.194043 0.571660 -0.042102 
1.124460 1.650680 -0.776268 
0.745790 -1.069180 0.223925 
0.758900 -1.068150 0.212329 
0.292833 0.671033 -0.040164 
-0.321701 0.668495 -0.025120 
-0.324606 0.681742 -0.035639 
-0.313212 0.670963 -0.040419 
-0.399414 0.713201 -0.021948 
0.011889 1.690370 0.549701 
0.022118 0.148073 0.053026 
0.018171 0.150877 0.034317 
-0.769332 -0.279596 0.306369 
0.000819 0.351490 0.606255 
-0.017737 0.346796 0.607960 
-0.349590 0.702229 -0.029397 
-0.364870 0.708132 -0.027355 
0.340276 0.708076 -0.011520 
0.330881 0.700073 -0.001343 
-0.412292 0.755790 -0.044143 
-0.764482 0.126375 0.205660 
0.381241 0.786949 -0.062941 
-0.446644 0.785036 -0.026950 
-0.472579 0.828338 -0.027880 
-0.469428 0.836591 -0.042041 
-0.815639 -0.091947 0.137482 
-0.816803 -0.075843 0.146009 
-0.473524 0.851645 -0.046242 
-0.476704 0.867452 -0.050783 
-0.481733 0.860647 -0.035091 
0.453781 0.884433 -0.013440 
0.442940 0.869132 -0.013844 
0.698854 -0.076762 0.131777 
0.700638 -0.059449 0.138625 
-0.770468 -0.122860 0.261066 
-0.766785 -0.111370 0.270935 
-0.774932 -0.104994 0.255410 
0.634327 0.171584 0.150422 
0.632192 0.181666 0.164021 
-0.158998 1.505380 0.684717 
-0.150000 1.516410 0.676285 
0.389394 0.833342 0.510789 
0.607035 0.906034 -0.039084 
0.770828 0.910223 -0.036013 
0.774629 0.909665 -0.019219 
0.758383 0.908642 -0.021789 
0.787044 0.910761 -0.030729 
0.820572 0.915272 -0.021879 
0.803123 0.912873 -0.025160 
-0.666533 0.919085 -0.045875 
-0.683155 0.916533 -0.043406 
0.023740 1.761010 0.407295 
0.050094 1.751600 0.425610 
-0.654784 0.917983 -0.034290 
-0.518102 0.918024 -0.045295 
-0.544292 0.935431 -0.052788 
-0.177223 0.838350 0.698425 
-0.189283 0.830308 0.690120 
-0.698535 0.917620 -0.044213 
-0.713832 0.922502 -0.044361 
1.226470 1.477910 -0.786168 
-0.559971 0.935126 -0.051370 
-0.550656 0.930695 -0.035596 
-0.017358 0.094689 0.468117 
-0.014210 0.106222 0.442452 
0.254878 -0.124699 0.156072 
0.857186 0.949292 -0.020719 
0.848627 0.935685 -0.023727 
-0.875568 1.016530 -0.012497 
-0.861715 1.005740 -0.007525 
0.485100 -1.066460 0.465969 
-0.933924 1.053350 -0.035762 
-0.720886 0.924191 -0.029995 
-0.525115 -0.917981 0.240232 
-0.420511 0.747472 -0.002359 
-0.414264 0.738696 -0.015004 
0.933252 1.250620 -0.032883 
0.939044 1.235870 -0.030944 
0.947296 1.251230 -0.038422 
-0.620921 -0.698423 0.461693 
-0.635662 -0.703723 0.460885 
-0.621740 -0.713661 0.460869 
-0.217600 1.679220 -0.494516 
0.258882 1.648380 0.416125 
-0.275112 -0.084103 0.270097 
0.229041 -0.125377 0.275297 
0.220285 -0.112043 0.270586 
0.323858 1.235020 0.680214 
0.309464 1.255900 0.687268 
0.969146 1.114960 -0.042094 
0.576861 -0.363939 0.437310 
-0.176101 1.501520 0.683078 
-0.191812 1.495630 0.681927 
1.055530 1.204290 -0.034835 
1.049460 1.186230 -0.040129 
1.048270 1.168120 -0.048379 
0.556742 1.269850 -0.036717 
0.994347 1.190730 -0.037880 
1.173380 1.450750 -0.802726 
-0.954230 1.204740 -0.031421 
0.649861 -0.152289 0.269242 
0.658360 -0.155979 0.256845 
-0.943410 1.239720 -0.038145 
-0.949259 1.222440 -0.034250 
-0.939211 1.210770 -0.026074 
0.687781 1.251950 -0.051905 
0.674558 1.258610 -0.041260 
-0.958022 1.076170 -0.039097 
-0.959772 1.093420 -0.033896 
-0.118368 -0.063522 1.054030 
0.526603 0.059821 0.458235 
0.519240 0.076625 0.464575 
1.105260 1.246830 -0.049065 
1.017730 1.241410 -0.027836 
-0.512593 -0.683156 0.131953 
0.393907 1.347690 0.585656 
-1.109050 1.199050 -0.834068 
0.992505 1.259760 -0.035909 
1.001070 1.248270 -0.030026 
0.397922 -1.069490 0.203101 
1.098960 1.280570 -0.043889 
1.090960 1.247230 -0.041576 
-0.354465 1.153680 0.694627 
-0.506972 -0.632611 0.414466 
-0.516041 -0.620478 0.422970 
0.607596 1.260430 -0.045730 
-0.488415 -0.347943 0.108622 
0.003819 0.365658 0.605546 
0.226728 0.088905 0.465639 
0.993696 1.274310 -0.042204 
-0.733722 0.928843 -0.004986 
-0.720064 0.923692 -0.014315 
0.481416 0.197400 0.464995 
-0.195492 1.479040 0.690336 
-0.212462 1.454720 0.693346 
0.476447 -0.962718 0.555720 
-0.374455 0.645685 0.460108 
0.586496 -1.065580 0.358168 
0.256365 0.049887 0.459633 
0.269446 0.039343 0.465639 
1.100330 1.640190 -0.752076 
0.119174 0.501513 -0.085811 
0.870693 1.261180 -0.019658 
0.848864 1.273040 -0.035030 
0.929585 1.281500 -0.044939 
-0.713871 -0.673786 0.119092 
0.665170 1.265690 -0.027040 
0.464162 -0.958318 0.568044 
-0.841329 1.286510 -0.028273 
-0.853013 1.284200 -0.037189 
0.570164 -0.831877 0.460053 
0.571530 -0.817274 0.466623 
-0.470276 -0.234993 0.255764 
-0.454020 -0.229856 0.260022 
1.090820 1.295560 -0.041873 
1.073620 1.304920 -0.042037 
1.071840 1.291030 -0.037067 
-0.817209 1.298380 -0.028268 
0.601670 -0.753152 0.471298 
0.610559 -0.743309 0.459752 
0.492245 1.310610 -0.037088 
-0.444547 1.265810 0.608668 
-0.432308 1.278510 0.615955 
-0.739985 1.321760 -0.020896 
-0.727434 1.323110 -0.032379 
-0.714032 1.324100 -0.022874 
0.385318 0.721065 0.175857 
0.381713 -0.029669 0.466778 
0.388005 -0.016648 0.475046 
-0.215040 0.476042 0.610198 
0.462979 1.345630 -0.023259 
0.461001 1.337070 -0.051949 
-0.362142 0.515807 0.481091 
-0.376862 0.520590 0.457144 
-0.225614 1.462970 0.683440 
-0.565284 1.329390 -0.045456 
-0.571753 1.324010 -0.031518 
-0.490776 0.068307 0.511137 
0.384692 1.404750 -0.035977 
0.053689 0.141189 0.627895 
0.180884 1.710370 -0.065591 
-0.841710 -0.231422 -0.000453 
-0.562011 1.331940 0.027174 
-0.561132 1.333800 0.009971 
-0.561571 1.333490 -0.006386 
0.064338 0.101935 0.593830 
-0.711554 -1.059180 0.384691 
0.736998 1.247780 -0.035044 
-0.820639 1.007210 0.065078 
-0.832084 1.014670 0.056088 
-0.824645 0.998933 0.051401 
-0.202947 1.744260 -0.023947 
0.514380 -0.654940 0.169814 
0.500252 -0.647451 0.167182 
-1.221590 1.443970 -0.810386 
0.371095 1.515390 -0.034243 
0.387697 1.497350 -0.045951 
0.377844 1.510580 -0.047692 
0.676669 1.023100 0.259844 
0.662855 1.017900 0.264654 
0.673050 1.006920 0.254496 
0.306823 0.459051 0.458408 
0.313921 0.471553 0.455315 
-0.449829 1.503680 -0.012010 
-0.461043 1.494140 -0.018686 
-0.460561 1.496150 -0.001930 
-0.841859 -0.876884 0.171613 
-0.499524 1.471240 -0.035404 
-0.489279 1.479560 -0.030511 
-0.413115 1.537830 0.443686 
-0.412092 1.518390 -0.043845 
0.399704 -0.867051 0.264785 
-0.707485 -0.698793 0.127859 
-0.485175 0.042659 0.502794 
0.542459 1.020880 0.317342 
-0.470195 -0.661453 0.373297 
-0.303573 1.629800 -0.033720 
-0.297720 1.642770 -0.030141 
-0.619511 -0.787343 0.456999 
-0.616981 -0.804108 0.454467 
-0.603074 -0.781601 0.459750 
0.269265 1.643300 -0.022811 
0.250257 1.660430 -0.034838 
0.324853 1.569720 -0.066767 
-0.410955 0.434269 0.445388 
-0.402053 0.436209 0.459412 
-0.410114 0.448198 0.447663 
0.220187 1.682160 -0.028723 
0.144570 1.485120 0.690326 
-0.721570 0.199695 0.188478 
-0.167534 0.615058 0.631911 
0.256102 1.657840 -0.005768 
-0.325508 -0.087960 0.196148 
0.236724 1.673740 -0.012260 
0.317836 1.901000 -0.483103 
-0.211889 1.731060 -0.019856 
0.294449 -0.008173 0.457210 
0.688927 -0.153471 0.174984 
0.679531 -0.169606 0.177212 
-0.791268 -0.272140 0.268841 
-0.779420 -0.260271 0.264858 
0.225569 1.401790 0.689021 
-0.547774 1.358280 -0.004415 
-0.539992 1.370130 -0.013937 
-0.545482 1.358940 -0.022653 
-0.592670 0.001575 0.455745 
-0.581162 0.009572 0.462424 
-0.585495 0.027784 0.466278 
0.692804 -1.077350 -0.016306 
0.704681 -1.079410 -0.026259 
-0.527042 0.057247 0.498975 
0.695422 -1.077780 -0.001062 
-0.962557 -1.069260 -0.018922 
-0.981579 -1.067870 -0.019995 
-0.135433 1.716750 0.466925 
0.454689 -0.861468 0.568419 
0.318986 0.431712 0.461463 
-0.815215 -0.291921 0.252413 
0.638846 -1.050520 0.001927 
0.651968 -1.062570 0.001645 
0.641553 0.171899 0.265611 
0.502124 -1.045340 -0.020671 
0.563544 -1.031280 -0.006765 
0.065207 1.753100 0.416901 
-0.199739 0.025740 0.246023 
-0.179513 0.033286 0.266116 
-0.195229 0.022552 0.262869 
-0.889744 -1.029050 -0.020016 
-0.902767 -1.040730 -0.027033 
-0.711984 -1.019350 -0.023051 
-0.682208 -0.724874 0.130190 
0.730351 -1.035480 -0.023588 
0.629550 -0.296649 0.275127 
0.628052 -0.281536 0.271504 
-1.006450 -1.008330 -0.026243 
-1.006250 -1.020470 -0.017990 
-0.991928 -0.994580 -0.003282 
-0.675033 -0.793356 0.154121 
-0.426203 -0.600964 0.267927 
-0.258423 1.396420 0.692132 
-0.273271 1.397700 0.685285 
0.552578 -0.997040 -0.015786 
0.061670 1.764590 0.383609 
0.672649 -1.015550 -0.027626 
-1.026710 1.515610 -0.824225 
0.298157 -0.867678 0.469799 
-0.571858 -0.829158 0.187457 
-0.583767 -0.091052 0.419019 
-0.577541 -0.075476 0.427924 
-0.423709 -0.506369 0.142220 
-0.819608 -0.990455 -0.024901 
-0.829194 -1.002920 -0.031104 
0.326745 -0.346128 0.265238 
1.226880 1.503420 -0.763152 
0.479791 -0.978969 -0.000766 
0.421765 1.479110 0.136995 
-0.084691 1.054290 -0.271449 
-0.730436 -0.994113 -0.036959 
0.544835 -0.985410 -0.006112 
0.551330 -1.001980 0.000836 
0.523979 -0.972832 -0.023222 
0.607539 -0.213956 0.282703 
-0.799481 -0.970667 -0.024391 
-0.785837 -0.959968 -0.029284 
-0.942176 1.332400 -0.200524 
-1.199410 1.493890 -0.840996 
-0.691067 -0.325270 0.394119 
-0.834464 -0.380507 0.279776 
-0.658372 -0.621337 0.084114 
0.285714 -0.411877 0.242363 
-0.663968 -0.631104 0.094304 
0.606970 -0.293013 -0.031456 
0.580881 -0.301933 -0.028395 
0.599974 -0.275752 -0.031761 
-0.128266 1.799530 0.214314 
-0.707579 -0.685522 0.124088 
-0.259273 0.859787 0.687469 
-0.265717 0.846111 0.677068 
-1.049130 -0.997863 0.148539 
-0.730317 -0.264231 -0.030273 
-0.745081 -0.261907 -0.037421 
-0.941245 -0.954949 -0.028763 
-0.946454 -0.948737 -0.019053 
-0.492964 -0.924223 0.453968 
0.608778 -0.249264 -0.025860 
0.613077 -0.263634 -0.029172 
0.627828 -0.254304 -0.022821 
-0.831888 -0.227913 0.134497 
-0.827444 -0.243104 0.159721 
-0.816358 -0.237575 -0.031449 
-0.426046 0.462563 0.417972 
-0.819017 -0.250382 -0.022490 
0.035129 0.565735 0.655202 
0.645235 -0.154831 0.020103 
-0.381934 0.974954 0.639468 
0.604052 -0.232431 -0.019717 
0.591628 -0.244919 -0.023765 
-0.113410 0.867528 0.696199 
0.539903 -0.184120 -0.036202 
0.549720 -0.172391 -0.040482 
0.520693 -0.235699 -0.019191 
0.505116 -0.243879 -0.016035 
0.503382 -0.229416 -0.022425 
0.651706 -0.386091 0.261256 
0.649756 -0.396487 0.276756 
0.249163 1.385540 0.680537 
-0.717138 -0.256279 -0.031633 
0.292784 1.396400 0.647069 
0.308472 1.397600 0.636593 
0.298082 1.408680 0.636652 
0.346007 -0.975559 0.279252 
0.539388 -0.232563 -0.017225 
0.530691 -0.222723 -0.022707 
-0.554086 -0.024262 0.462856 
-0.058886 -0.058273 1.072550 
0.510286 0.331293 0.191197 
-0.677551 -0.938172 0.040063 
0.525594 -0.194313 -0.031904 
0.529320 -0.208659 -0.027131 
0.511364 -0.203491 -0.028658 
0.521894 0.908150 -0.005194 
0.505739 0.911437 -0.014242 
0.006456 0.379735 0.611106 
-0.012642 0.375834 0.609461 
-0.242815 0.796353 0.632641 
-0.258107 0.802455 0.633111 
0.498551 -0.213271 -0.024941 
0.576489 -0.257208 -0.024530 
0.566253 -0.274351 -0.023978 
0.559630 -0.259267 -0.018326 
-0.667425 -0.194261 -0.031228 
-0.650264 -0.186293 -0.029611 
0.458695 -0.186945 -0.027893 
0.443789 -0.176601 -0.026966 
0.457651 -0.169913 -0.033458 
-0.426524 1.520810 0.027275 
-0.419622 1.524070 0.044027 
-0.406660 1.534710 0.037283 
0.377307 -0.044870 0.460561 
-0.404755 -0.031277 0.467195 
-0.410578 -0.017352 0.477409 
0.591762 -0.052964 -0.028660 
0.600882 -0.064549 -0.024029 
0.588083 -0.072587 -0.030697 
0.579616 -0.087599 -0.035273 
-0.837060 -0.187314 -0.014284 
-0.832810 -0.171134 -0.019133 
0.387573 -0.098460 -0.026847 
0.382871 -0.083376 -0.028019 
-0.261723 1.408070 0.680608 
-0.562252 1.264870 0.451813 
-0.558704 1.139840 0.465056 
-0.560485 1.129690 0.451508 
0.254307 0.536217 0.043398 
0.248461 0.547520 0.033776 
0.259948 0.551527 0.046900 
0.429435 -0.166081 -0.023071 
0.413556 -0.162685 -0.015800 
0.423975 -0.152453 -0.023562 
0.654176 -0.448815 0.277329 
-0.288407 1.398570 0.677354 
-0.306087 1.372710 0.680231 
-0.557597 -0.134637 -0.027221 
-0.429638 -0.437486 0.248772 
-0.435487 -0.436207 0.277700 
0.604691 -0.128415 -0.025053 
0.594515 -0.146939 -0.028343 
-0.784996 -0.141151 -0.047416 
-0.549451 -0.121338 -0.027748 
-0.527864 -1.013760 0.266874 
-0.521332 -1.003010 0.276315 
0.260215 -0.683710 0.370995 
0.581764 -0.390473 0.019336 
0.583030 -0.400687 0.033527 
0.567799 -0.395360 0.028406 
-0.522841 -0.116795 -0.020811 
-0.538585 -0.110930 -0.028310 
-0.525856 -0.100099 -0.028718 
0.390630 1.508520 0.152351 
-0.655211 -0.387718 0.000221 
-0.662428 -0.375015 -0.006457 
0.878087 0.992030 -0.237405 
0.535216 -0.975623 -0.014828 
-0.834776 -0.477121 0.265306 
-0.836439 -0.462966 0.275689 
-0.746438 -0.089530 -0.023897 
-1.021700 1.629760 -0.827357 
-0.572536 1.023460 0.279210 
-0.590518 -0.544614 0.452108 
-0.605974 -0.532488 0.455911 
-0.604084 -0.550880 0.457543 
-0.512424 -0.034362 0.463442 
0.593419 -0.092407 -0.027208 
0.584370 -0.104410 -0.035740 
0.614173 -0.065668 -0.014313 
0.603094 -0.079983 -0.021302 
-0.425431 -0.484334 0.260061 
0.422601 -0.040159 0.465392 
0.408848 -0.052957 0.460657 
0.427609 -0.054972 0.461523 
-0.733159 -0.044469 -0.026615 
-0.485316 -0.046552 -0.028864 
-0.484103 -0.029417 -0.031047 
0.353848 -0.024859 -0.025824 
0.365848 -0.032699 -0.028935 
0.355675 -0.043121 -0.022314 
0.619470 -0.032844 -0.001334 
0.619913 -0.015379 0.008250 
0.627692 -0.028285 0.009992 
0.595733 -0.035863 -0.022874 
0.581328 -0.038726 -0.031521 
-0.178601 0.661802 0.638813 
-0.165635 0.668895 0.649862 
0.571722 -0.008002 -0.025187 
0.569945 -0.024593 -0.033302 
-0.769444 0.067446 0.270949 
0.343917 -0.374958 0.412477 
0.290136 0.179398 0.012379 
0.304155 0.174810 0.007035 
0.289103 0.162975 0.008472 
0.270509 -0.486104 0.394362 
-0.567934 0.000384 0.464718 
-0.736955 -0.296429 -0.011155 
-0.721701 -0.303580 -0.007519 
0.265118 0.025824 0.008270 
0.280386 0.018674 0.001661 
0.257150 0.012101 0.016668 
-0.711600 0.023861 -0.025168 
0.510250 0.321634 0.283313 
-0.706496 -0.711556 0.132306 
0.607967 -0.437571 0.473346 
-0.641242 0.053927 -0.041243 
-0.446652 0.045410 -0.028847 
-0.439037 0.060214 -0.026393 
-0.430127 0.044336 -0.022697 
-0.843546 -0.281460 0.145880 
0.358613 -0.076203 -0.016043 
0.364888 -0.058781 -0.022247 
0.373025 -0.071582 -0.024284 
-0.080685 0.867521 0.694177 
-0.073570 0.850421 0.691994 
-0.648998 0.065559 -0.035202 
0.362710 0.076038 -0.030187 
0.367584 0.047226 -0.031656 
0.341175 0.051396 -0.024249 
0.647209 -0.532256 0.254218 
0.650117 -0.517031 0.254005 
0.646359 -0.525150 0.269075 
-0.545234 1.026500 0.443855 
-0.536570 0.996755 0.445443 
0.336135 0.035338 -0.020671 
0.325210 0.050903 -0.018579 
-0.512394 1.405520 -0.031079 
-0.520941 1.422510 -0.025589 
-0.447283 0.073873 -0.028447 
-0.426655 0.076321 -0.023922 
-0.150168 0.057065 0.271305 
-0.133111 0.076318 0.254638 
0.492232 1.281150 0.412451 
-0.454790 0.088684 -0.028244 
0.354605 0.092028 -0.026099 
0.385218 0.093707 -0.031226 
-0.791365 -0.734541 0.365226 
-0.825649 -0.558835 0.260944 
-0.830656 -0.571676 0.272951 
-0.469474 0.093485 -0.029459 
-0.442655 0.101220 -0.025610 
0.402955 0.096956 -0.031921 
-0.553528 -0.715901 0.126065 
0.074960 1.519350 0.696185 
0.086298 1.525270 0.684876 
-0.957807 -1.072050 0.224112 
-0.762347 -0.100136 0.279832 
-0.438177 0.177429 -0.007660 
-0.445880 0.163446 -0.013630 
0.277109 -0.952557 0.411292 
-0.474596 0.111515 -0.031390 
-0.821765 -0.585488 0.265737 
-0.828946 -0.586128 0.279613 
0.376942 0.108672 -0.025912 
0.405367 0.112742 -0.028268 
0.659772 -0.326697 0.151630 
0.059345 1.523560 0.695299 
0.471201 0.118195 -0.026188 
0.618763 -0.174618 0.000296 
0.628426 -0.179905 0.012662 
-0.610226 0.110685 -0.028967 
-0.592683 0.107773 -0.032760 
-0.579459 0.121191 -0.029861 
-0.368236 -0.164384 0.261613 
-0.368532 -0.159477 0.276426 
0.286339 -0.192347 0.169682 
-0.463344 0.123253 -0.029256 
-0.107087 0.181481 -0.002224 
-0.585653 -0.248555 0.017361 
0.129534 0.361480 -0.031640 
0.310778 -0.660655 0.230477 
-0.561067 0.119794 -0.030998 
-0.541719 0.124800 -0.028608 
-0.546459 0.110230 -0.032838 
-0.523246 0.129518 -0.028203 
-0.510297 0.115723 -0.031387 
0.404673 0.127552 -0.022517 
0.388846 0.120261 -0.023044 
-0.425354 -0.555831 0.265380 
-0.569463 0.133961 -0.024936 
-0.533189 0.141026 -0.026277 
0.550185 -1.043590 -0.006890 
-0.403910 -0.005151 0.482621 
-0.544044 0.150656 -0.022910 
-0.526968 0.157520 -0.024796 
-0.482811 0.146658 -0.026626 
-0.497532 0.157514 -0.024413 
0.342334 -0.705794 0.236062 
0.332240 -0.711724 0.247508 
-0.069602 0.175812 -0.026626 
-0.058102 0.164438 -0.024027 
-0.074005 0.161841 -0.019403 
-0.885497 -1.064510 0.246170 
-0.026758 0.167251 -0.022013 
-0.042451 0.169435 -0.025738 
0.140576 1.233600 -0.759937 
-0.496702 -0.862890 0.314917 
0.542916 0.117189 0.006839 
0.611717 -0.002154 0.007466 
0.624509 -0.001468 0.020501 
0.006507 1.791090 0.243816 
-0.004599 1.793700 0.229891 
-0.012212 0.194647 -0.029548 
-0.008374 0.171215 -0.017421 
0.030261 0.096284 0.300089 
0.003504 0.199473 -0.028986 
-0.344059 1.288460 0.688820 
-0.356865 1.258140 0.688663 
-0.131587 0.243270 -0.030724 
-0.124268 0.230216 -0.033335 
-0.105084 0.196055 -0.011482 
0.043025 0.217578 -0.020896 
0.328365 -0.437453 0.455713 
0.075824 0.276457 -0.021660 
-0.132171 0.220449 -0.007874 
-0.122176 0.218790 -0.021975 
-0.118129 0.208898 -0.010746 
0.212876 0.932152 0.694315 
-0.035582 -0.071244 1.069120 
0.284527 -1.060390 0.418155 
-0.282415 -0.004123 0.140443 
-0.304423 -0.030586 0.137819 
-0.303386 -0.018863 0.124127 
0.077526 0.316531 -0.043207 
0.083134 0.302517 -0.032619 
0.097340 0.303554 -0.025644 
0.088556 0.318611 -0.032670 
0.551141 -0.876853 0.263724 
0.535270 -0.871192 0.268351 
0.603189 0.218044 0.160281 
0.586451 0.229895 0.137882 
0.595175 0.231531 0.161377 
0.630498 -0.473236 0.457852 
0.109364 0.333974 -0.029524 
0.124454 0.335160 -0.027745 
0.121777 0.320356 -0.025191 
0.093318 0.334658 -0.033224 
-0.197916 0.359154 -0.025078 
-0.173778 0.342520 -0.030306 
-0.190991 0.344258 -0.025422 
-0.157929 0.342656 -0.037297 
0.623727 -0.657545 0.455466 
0.622050 -0.643255 0.462480 
0.113011 0.304988 -0.022374 
0.127336 0.305720 -0.020163 
0.144330 0.358179 -0.029091 
0.168310 0.351928 -0.024536 
-0.431349 -0.646834 0.265460 
-0.429092 -0.630224 0.264931 
0.150603 0.512117 -0.035324 
0.161965 0.524116 -0.026888 
-0.187406 0.385278 -0.031387 
-0.201255 0.376801 -0.026076 
-0.314181 1.628040 -0.087948 
0.626726 -0.503924 0.463542 
0.634395 -0.508176 0.452057 
0.630448 -0.490140 0.456842 
-0.810199 -0.014515 0.147110 
0.175816 0.408797 -0.025347 
-0.445073 -0.686705 0.252691 
-0.439674 -0.679250 0.266308 
-0.228145 0.447578 -0.032610 
0.207358 0.386813 -0.015494 
0.198284 0.372040 -0.019354 
0.582170 -0.936328 0.436146 
0.158355 0.434033 -0.030180 
0.430705 -0.622895 0.574134 
-0.802517 -0.667457 0.260456 
-0.802277 -0.684701 0.263688 
-0.806254 -0.670586 0.274943 
0.629251 -0.536646 0.463085 
0.638112 -0.544143 0.450851 
0.636960 -0.526143 0.451856 
-0.236522 0.476395 -0.031023 
0.276490 1.751060 -0.480677 
-0.232697 0.461701 -0.032561 
0.140913 0.496160 -0.043117 
-0.482239 0.832532 -0.000005 
-0.494797 0.855416 0.014203 
-0.486353 0.856340 -0.016786 
0.317387 1.560160 -0.093991 
0.852207 0.988614 -0.226156 
-0.604614 0.184057 0.018715 
-0.594941 0.178886 0.007333 
-0.611789 0.169900 0.010419 
0.245457 1.716020 -0.488660 
-0.613864 0.190923 0.028989 
0.191740 0.417745 -0.018240 
0.206192 0.419077 -0.005952 
0.204610 0.404442 -0.013618 
0.488123 -0.600804 0.133631 
0.500507 -0.592460 0.123775 
0.502532 -0.607418 0.132827 
-0.477106 0.870992 0.462962 
-0.750514 -1.043810 -0.058873 
0.182309 0.488465 -0.005679 
0.195639 0.491475 0.002690 
0.190893 0.475034 -0.000495 
-0.229910 0.522385 -0.028410 
-0.243225 0.529020 -0.018321 
-0.231997 0.539031 -0.028216 
-0.522330 -1.043680 0.513549 
0.636053 -0.681721 0.397682 
0.506436 1.116430 0.391208 
0.638403 -1.059670 0.014214 
-0.101307 1.239270 -0.828152 
0.279603 -0.585812 0.458743 
0.277471 -0.600922 0.455956 
-0.290522 0.634605 -0.030515 
-0.305019 0.645386 -0.023223 
1.152110 1.449570 -0.768426 
0.630119 -0.601029 0.459710 
-0.544467 -0.080026 0.431550 
-0.530139 -0.084118 0.432313 
-0.185487 0.043984 0.225022 
-0.382995 0.709687 -0.028322 
0.251213 0.928788 0.672906 
0.525463 0.091416 0.458011 
0.511830 0.092586 0.467481 
0.352506 0.734099 -0.033783 
0.357619 0.745861 -0.027845 
0.354723 0.733073 -0.017450 
-1.061330 1.329630 -0.817678 
-1.053790 1.312310 -0.793631 
-0.452683 -0.719017 0.255583 
-0.451550 -0.727803 0.269944 
0.408139 0.817929 -0.047547 
0.395910 0.805663 -0.050096 
-0.653194 -0.757331 0.135774 
0.108933 0.783030 0.643445 
0.847018 0.927504 -0.011815 
-0.396813 0.784544 0.453674 
-0.391820 0.787858 0.468453 
0.427415 0.840087 -0.029999 
0.411972 0.817578 -0.031036 
-0.487561 0.870489 -0.027198 
0.015574 0.871777 0.692073 
0.208459 0.755338 0.595451 
-0.368208 1.634140 0.246778 
-0.370370 1.623670 0.255728 
0.711438 0.898700 -0.019793 
-0.855483 -0.397569 0.157345 
-0.440789 0.484002 0.271093 
0.705348 1.173990 0.238881 
0.696930 1.165160 0.251365 
0.707987 1.155960 0.243111 
-0.641399 0.916559 -0.025463 
-0.657281 0.915328 -0.017011 
0.494746 -0.896556 0.144813 
-0.610159 0.921425 -0.029167 
-0.625802 0.919315 -0.032899 
0.159597 1.491000 0.685757 
0.158635 1.501770 0.675354 
-1.252330 1.299160 -0.809906 
0.548432 0.914359 -0.026985 
-0.911262 -1.059900 0.210103 
-0.913667 -1.063850 0.224468 
-0.929909 -1.068670 0.229469 
0.139918 1.770630 0.248938 
0.612582 0.899262 -0.024132 
0.595684 0.902226 -0.027514 
0.357294 -0.399580 0.451918 
0.367712 -0.385669 0.450832 
-0.595095 0.924477 -0.025029 
-0.530641 0.914023 -0.014079 
0.837750 0.921861 -0.026472 
-0.429766 1.090810 0.634648 
-0.436366 1.103710 0.626030 
-0.436051 1.087510 0.620423 
0.120019 1.742080 0.395494 
0.876262 0.976762 -0.021206 
0.865372 0.963885 -0.019794 
-0.568977 0.930739 -0.038460 
-0.924419 -0.939639 0.259845 
-0.931540 -0.953135 0.264961 
-0.750919 0.159054 0.169288 
0.865743 0.957399 -0.005720 
0.608586 -0.713085 0.470233 
-0.789963 0.949194 -0.008214 
-0.804174 0.958864 -0.010481 
0.616837 -0.716711 0.453744 
-0.632443 -0.462687 0.030124 
-0.636143 -0.446310 0.026641 
-0.620481 -0.453027 0.027870 
0.954675 1.124010 -0.017689 
0.954607 1.103820 -0.022057 
0.559214 -0.211549 0.347290 
-0.888269 1.028460 -0.017443 
-0.901585 1.038360 -0.023383 
-0.126121 1.142050 0.779938 
0.454952 0.907757 0.447850 
0.460790 0.905970 0.434589 
-0.340004 1.746040 -0.435514 
-0.402408 1.288840 0.636898 
-0.397804 1.273250 0.645119 
-0.960573 1.110040 -0.029442 
0.503998 1.330080 0.006641 
0.491931 1.340110 0.014164 
0.497517 1.343660 0.027465 
-0.953951 1.138540 -0.023345 
-0.964151 1.127020 -0.029441 
-0.952600 1.060020 -0.042231 
-0.943263 1.069420 -0.034387 
-0.283745 1.656440 0.436312 
-0.293361 1.644560 0.440900 
-0.285878 1.649260 0.454925 
-0.924926 1.088750 -0.012219 
-0.407983 1.302630 0.626943 
-0.973842 1.159360 -0.035524 
0.652555 -0.396190 0.143125 
0.654406 -0.369875 0.152548 
0.218710 -0.097511 0.263079 
0.613301 -0.747251 0.443244 
0.618063 -0.732583 0.448208 
0.961617 1.189860 -0.026474 
0.956538 1.173470 -0.023523 
0.985943 1.204730 -0.032162 
0.978252 1.220340 -0.030360 
0.969353 1.205270 -0.029204 
-0.612215 -0.756104 0.465180 
-0.595706 -0.748798 0.464308 
-0.608133 -0.738365 0.463479 
1.039840 1.201230 -0.035343 
1.021600 1.202150 -0.036769 
-0.116591 0.297425 0.586993 
0.175120 1.482470 0.685743 
0.988397 1.234490 -0.031390 
0.971101 1.236630 -0.032392 
1.019300 1.226650 -0.028908 
1.004110 1.231750 -0.029270 
1.011590 1.215280 -0.031491 
1.045650 1.217500 -0.031346 
0.955471 1.236670 -0.034141 
0.961851 1.221010 -0.029830 
-0.594567 -0.383853 0.416090 
-0.943488 1.193940 -0.023378 
-0.685084 1.042310 0.204306 
-0.935019 1.254690 -0.044831 
-0.804678 -0.873850 0.134859 
-0.650253 -0.889156 0.135508 
-0.895283 1.249240 -0.023140 
-0.666276 -0.761533 0.456618 
-0.702125 1.002840 0.177235 
-0.654645 -0.754611 0.461970 
1.033580 1.230420 -0.028866 
-0.510726 -0.731885 0.414796 
0.738285 1.253310 -0.018986 
0.950316 1.140790 -0.012909 
0.940085 1.141720 0.002938 
0.330288 1.632620 0.257703 
-0.291902 1.719020 0.252358 
-0.273941 1.731440 0.234095 
-0.103177 -0.031515 1.006150 
1.035060 1.262850 -0.028608 
1.077080 1.249260 -0.036077 
0.278262 -0.166724 0.155061 
0.837848 1.267110 -0.021560 
-0.869179 1.264470 -0.027153 
-0.294097 0.123822 0.501982 
0.862544 1.260690 -0.004122 
0.878070 1.253470 -0.006636 
1.037410 1.279130 -0.031200 
1.053940 1.285340 -0.033905 
-0.739507 -1.060820 0.406891 
-0.788611 1.306810 -0.012315 
-0.574433 1.323340 -0.015847 
0.547797 1.281090 -0.030261 
0.535639 1.294060 -0.022838 
0.552824 1.294600 -0.000154 
-0.686321 1.325380 -0.028575 
-0.671560 1.325490 -0.025923 
-0.396256 1.591250 0.266797 
-0.403219 1.584240 0.279027 
0.520136 1.302530 -0.025132 
0.493950 1.319270 -0.022482 
0.515207 1.319140 -0.001099 
-0.607585 0.243924 0.068796 
-0.596086 0.250992 0.072440 
-0.597093 0.239248 0.056722 
0.407839 1.380580 -0.039534 
-0.486195 0.422867 0.338194 
0.310615 1.576960 -0.022522 
0.321957 1.567670 -0.011944 
-0.284432 1.201240 0.735857 
0.659428 -0.538940 0.399409 
0.396505 1.418040 -0.030759 
0.398275 1.400550 -0.025727 
-0.286739 1.508580 0.607230 
0.451729 -0.366620 0.469920 
-0.422457 1.006250 0.606431 
0.406059 1.433000 -0.033840 
0.411069 1.411780 -0.019834 
-1.252350 1.248480 -0.843173 
-0.510127 1.461530 -0.030725 
0.411978 1.450710 -0.029766 
0.410235 1.463290 -0.020939 
0.488924 -0.840861 0.275618 
0.492851 -0.851898 0.263865 
-1.128240 1.183960 -0.867807 
0.380725 -0.236477 0.033226 
-1.114370 1.186470 -0.784369 
0.392527 -0.247953 0.029400 
0.345536 0.745619 -0.071333 
-0.501580 1.469600 -0.018358 
-0.514868 1.456960 -0.014572 
0.394222 1.493200 -0.031129 
0.411882 1.383760 -0.024926 
-1.183730 1.165650 -0.856262 
-0.807246 -0.466741 0.374179 
-0.760839 -0.720354 0.160790 
-0.437307 1.508470 -0.023817 
-0.439099 1.512710 -0.006367 
-0.450393 0.758355 0.203425 
0.338146 1.539710 -0.021451 
0.349395 1.527620 -0.023560 
0.343063 1.535110 -0.036883 
-0.130099 -0.118475 1.072500 
-1.077280 1.339730 -0.889797 
-0.423098 1.511500 -0.033129 
-0.412320 1.521110 -0.023872 
-0.474561 1.486520 -0.024850 
0.307415 1.072130 0.679962 
0.309257 1.089490 0.684176 
0.588096 -1.064730 0.255023 
0.330465 1.092220 0.665782 
-0.408575 0.706066 0.256518 
-0.403190 0.682525 0.254995 
0.300762 1.585450 -0.014148 
0.298575 1.583950 -0.031921 
0.260433 -0.544749 0.400497 
-0.339832 1.603620 -0.018233 
-0.312462 1.622960 -0.020999 
-0.294563 1.651680 -0.017472 
-0.299321 1.641170 -0.003558 
0.337420 0.605507 0.185211 
0.539741 -0.874136 0.252516 
-0.393533 0.426548 0.470934 
0.427840 -0.901372 0.159036 
-0.801515 -0.654788 0.176905 
-0.247684 1.709500 -0.025572 
0.429914 1.281780 0.559105 
-0.195410 1.758940 0.010440 
0.097768 1.766710 0.002573 
-0.186873 0.393698 0.597220 
-0.155429 1.777660 -0.024802 
-0.169994 1.774030 0.007827 
-0.059629 1.788730 -0.027077 
-0.263204 0.570870 -0.008300 
-0.553229 0.904774 0.191551 
0.729279 -1.069170 -0.008531 
0.721693 -1.079120 -0.021253 
0.077954 0.748904 0.640519 
-0.487551 0.415041 0.352895 
-0.988433 -1.061510 -0.008479 
-0.770861 -1.071570 -0.008044 
-0.836820 1.001220 0.028091 
-0.847983 1.016880 0.031556 
-0.663080 -0.887823 0.129683 
0.126359 1.756650 -0.030258 
0.046375 1.787440 -0.017314 
0.061065 1.780870 -0.014550 
-0.686115 -0.556757 0.457269 
-0.694427 -0.571169 0.454884 
-0.678962 -0.574535 0.458413 
-0.073144 1.783700 -0.017464 
-0.086143 1.782990 -0.007848 
-0.072702 1.786770 0.001443 
-0.550472 1.358240 0.014073 
-0.543609 1.370100 0.004640 
-0.717725 0.166749 0.083206 
-0.715423 0.156553 0.070906 
-0.515815 1.474050 0.266569 
-0.496470 1.493620 0.273794 
-0.471880 0.405249 0.393170 
0.276264 0.376540 0.503662 
-0.800856 -0.719833 0.274873 
0.423261 0.411475 0.196809 
-0.164880 0.333181 0.578398 
-0.959346 -1.070800 0.243479 
0.299210 -0.842253 0.457332 
0.300543 -0.855730 0.445195 
0.298865 -0.856128 0.463627 
-0.641209 1.008110 0.214321 
-1.005770 -1.035610 -0.011783 
0.669481 0.099970 0.240137 
0.666913 0.089832 0.257613 
0.162779 0.038518 0.139341 
0.477827 -1.004010 -0.015565 
0.480483 -1.020050 -0.023514 
0.458361 1.340940 0.466516 
0.642461 -1.040600 -0.008906 
0.649560 -1.028960 -0.017136 
0.656256 -1.041680 -0.021991 
0.216824 1.710510 0.374784 
-0.698454 -1.008080 -0.018375 
0.467775 -1.007090 0.000034 
0.472958 -0.993399 -0.002257 
-0.621039 -0.757551 0.132502 
-0.442610 1.495140 0.439539 
-0.821179 -0.990672 -0.008995 
-0.810496 -0.980420 -0.017536 
0.678474 -1.003220 -0.020607 
0.668282 -0.993583 -0.009193 
0.686546 -0.993160 -0.012049 
-0.707469 -1.000630 -0.023760 
0.285083 1.343120 0.683986 
0.266567 1.365730 0.686853 
-0.830901 1.269200 0.007646 
-0.842850 1.267480 -0.002217 
-0.841880 1.259340 0.012165 
0.493094 -0.971431 -0.010158 
0.488933 -0.966283 0.001955 
0.610185 -0.570953 0.169635 
-0.716374 -0.973064 -0.024318 
-0.718016 -0.989549 -0.028051 
0.508521 -0.969422 -0.015380 
0.505591 -0.963638 0.000978 
0.730934 -1.074770 0.217788 
-0.775699 -0.951454 -0.019403 
-0.784280 -0.949063 -0.005934 
-0.741974 -0.954935 -0.022840 
-0.728168 -0.961932 -0.023629 
-0.316195 0.812926 0.620640 
-0.329746 0.819219 0.625956 
-1.071650 1.311380 -0.841421 
-0.935397 -0.941896 -0.007060 
-0.918047 -0.965528 -0.025883 
-0.931002 -0.963654 -0.033174 
0.525368 -0.310401 0.383976 
-0.761535 -0.535801 0.423558 
-0.809066 1.107090 0.135890 
-0.802256 1.121590 0.140808 
-0.813353 1.120770 0.127539 
-0.693471 -0.915474 0.454250 
-0.678072 -0.905389 0.458511 
-0.795485 -0.419105 0.384177 
-0.203100 1.751220 0.023778 
0.582297 -0.318431 -0.024351 
0.566466 -0.339125 -0.011266 
0.553401 -0.326708 -0.010483 
-0.523877 -0.891292 0.439953 
-0.530051 -0.897176 0.456222 
0.503911 0.933052 0.275489 
-0.698589 -0.330186 -0.006776 
-0.683175 -0.331848 -0.007568 
-0.691552 -0.346213 -0.009414 
-0.708169 -0.441556 0.451390 
-0.722526 -0.433020 0.445229 
-0.832486 -0.957978 0.029488 
-0.848133 -0.952474 0.032996 
-0.232825 0.422489 0.578732 
-0.655381 -0.425793 0.015666 
-0.203948 0.402491 0.590881 
-0.644466 -0.413834 0.013946 
-0.687409 -0.255495 -0.022807 
-0.676016 -0.280163 -0.013782 
-0.504637 1.459800 -0.001519 
-0.493652 1.469010 -0.005419 
0.506384 -0.259381 -0.009575 
0.488407 -0.250458 -0.012139 
0.313023 1.611700 0.457044 
-0.099326 0.359436 0.600199 
-0.478945 -0.092581 0.436557 
-0.495825 -0.098550 0.431368 
-0.483274 -0.106521 0.426383 
0.578941 -0.240780 -0.019662 
-0.701482 -0.248540 -0.030588 
-0.686333 -0.239304 -0.028154 
0.265108 -0.999966 0.431902 
0.272049 -0.980426 0.414760 
-0.645065 -0.225005 -0.015316 
-0.672175 -0.228811 -0.024668 
0.511247 1.315430 0.362300 
-0.863217 -0.946026 0.034424 
0.485500 -0.224782 -0.020621 
-0.820866 -0.937620 0.040467 
-0.818224 -0.949644 0.031467 
-0.834957 -0.944169 0.036142 
-0.777243 -0.930252 0.015981 
-0.792951 -0.939799 0.018434 
-0.787583 -0.932318 0.029501 
-0.555738 -0.789284 0.165900 
-0.637268 -0.193699 -0.024333 
-0.949394 -0.957185 0.260620 
-0.637796 -0.752210 0.129823 
0.349614 0.538220 0.373790 
-0.839024 -0.413410 0.098865 
0.279378 0.334721 0.508482 
0.604494 -0.174339 -0.009494 
0.596607 -0.187510 -0.010669 
0.426705 -0.178490 -0.019003 
0.613808 -0.546393 0.148421 
0.610025 -0.560363 0.157680 
-0.433866 1.071840 0.615038 
0.412086 1.518750 0.407753 
0.421252 -0.139250 -0.026959 
0.567230 -0.968470 0.456323 
0.568037 -0.950555 0.458947 
-0.644866 1.024810 0.220385 
-0.657269 1.019650 0.212612 
0.511706 1.291230 -0.049996 
-0.432231 -0.561037 0.144934 
-0.823456 -0.137887 -0.018221 
-0.821425 -0.123814 -0.006056 
0.406028 -0.129509 -0.025149 
-0.380697 -0.025347 0.463897 
-0.377304 -0.013015 0.470137 
-0.515196 -0.048590 0.455774 
-0.499534 -0.042328 0.462466 
0.618647 -0.128808 -0.015960 
0.629570 -0.135304 -0.005656 
0.619048 -0.145136 -0.011668 
0.652722 -0.467035 0.279856 
-0.522540 -0.135038 -0.015141 
-0.519279 -0.150223 -0.008299 
-0.828101 -0.155607 -0.021128 
0.572254 -0.859782 0.426636 
0.571621 -0.865135 0.411707 
-0.966505 -1.013540 0.260047 
-0.944576 -1.019720 0.276179 
0.364462 -0.114023 -0.010961 
0.360810 -0.095701 -0.013480 
0.376326 -0.105132 -0.018695 
0.812706 1.155570 0.142072 
-0.493355 -0.063684 -0.026965 
-0.503261 -0.078184 -0.024914 
0.393974 -0.114636 -0.025082 
-0.515693 -0.089154 -0.027657 
-0.750667 -0.063964 -0.010836 
-0.745532 -0.047749 -0.015644 
-0.738671 -0.060257 -0.021965 
0.632409 -0.207959 0.006362 
-0.208015 1.635100 0.559027 
-0.469520 -0.053764 -0.020670 
-0.480908 -0.063092 -0.023257 
-0.455656 -0.062051 -0.011581 
-0.455547 -0.046224 -0.016274 
0.334240 -0.058275 -0.010307 
0.340434 -0.044958 -0.016538 
0.350701 -0.059324 -0.016141 
0.620733 -0.050831 -0.006065 
0.609590 -0.034728 -0.012709 
-0.675601 -0.880103 0.134683 
-0.411756 0.752588 0.368295 
-0.962521 -0.931426 0.157768 
-0.942834 -1.034510 0.274868 
-0.440210 0.004728 -0.024399 
-0.439827 -0.009299 -0.022040 
-0.454755 -0.015334 -0.026671 
-0.455069 -0.030999 -0.021916 
-0.469192 -0.021843 -0.029041 
-0.419466 1.579010 0.245134 
-0.404567 1.588480 0.250215 
-0.804159 -0.229012 0.201711 
0.341539 -0.012988 -0.021428 
0.341263 -0.029709 -0.019853 
-0.079694 0.124618 0.302429 
-0.750875 -0.035014 -0.008122 
-0.461145 -1.018370 0.454141 
-0.461659 -1.000900 0.452554 
0.443877 1.472280 0.407305 
0.548394 -1.002440 0.471859 
0.555072 -1.027630 0.458966 
0.539058 -0.229073 0.367777 
-0.383923 0.896630 0.600492 
0.576109 0.007236 -0.017920 
0.586738 -0.005927 -0.016080 
-0.641508 -0.396984 0.007834 
-0.639871 -0.381207 0.005056 
-0.626626 -0.390311 0.010563 
0.567730 0.020755 -0.019756 
0.583433 0.022627 -0.010245 
0.327389 0.021802 -0.015233 
0.340723 0.017168 -0.020444 
0.559935 0.037090 -0.019514 
-0.487915 -0.053390 0.460637 
-0.431958 0.015663 -0.021925 
-0.424162 0.027883 -0.018860 
-0.416081 0.010658 -0.012767 
0.344549 0.001773 -0.022454 
0.331139 0.001795 -0.016151 
0.451419 -1.059660 0.256165 
0.481368 -1.058110 0.272093 
0.598134 -0.019541 -0.015485 
-0.809429 -0.576113 0.138981 
-0.639174 0.105988 -0.023443 
-0.652800 0.095381 -0.021894 
0.294263 -0.885191 0.439644 
0.301019 -0.869361 0.435042 
0.531533 0.050161 -0.030097 
0.526252 0.065645 -0.025060 
0.538899 0.060671 -0.020181 
0.700579 1.105200 -0.174768 
0.381223 1.481340 0.008527 
0.516079 0.076837 -0.025729 
-0.411325 0.068051 -0.018623 
-0.409636 0.085501 -0.017800 
-1.181640 1.378370 -0.992303 
0.516988 0.091981 -0.019368 
-0.669022 0.100961 -0.009619 
0.322750 0.091861 -0.015434 
0.346295 0.105699 -0.019830 
-0.447218 0.117750 -0.025037 
-0.450267 0.134992 -0.024143 
0.587030 -0.390556 0.462307 
-0.431103 0.110757 -0.021119 
0.289203 -0.013478 0.004327 
0.275924 -0.016526 0.014162 
-0.500284 -0.314229 0.141317 
-0.501881 -0.300775 0.133545 
-0.694073 -1.039410 0.461123 
-0.573171 1.410260 0.136464 
0.696487 1.067800 0.257906 
0.700806 1.082160 0.253923 
0.350274 -0.985934 0.267607 
0.337735 -0.981521 0.294340 
0.359601 0.135523 -0.015476 
0.372040 0.124486 -0.019411 
0.354321 0.120164 -0.017932 
-0.515734 0.964207 0.463802 
0.433935 0.142451 -0.019050 
0.419813 0.134526 -0.021956 
-0.365502 -0.170700 0.247893 
-0.355651 -0.155189 0.253115 
0.562385 1.286780 0.253000 
0.575857 1.274240 0.251994 
0.463754 0.142265 -0.015951 
0.491823 0.131349 -0.012827 
-0.561890 0.148027 -0.019802 
0.222746 0.946514 0.695616 
0.232682 0.961173 0.695537 
-0.296774 0.572175 0.031828 
-0.300378 0.557684 0.037830 
-0.306531 0.571447 0.047207 
-0.721642 1.091330 0.201261 
0.289603 -1.064210 0.449223 
0.276310 -1.062190 0.458659 
-0.554791 0.160665 -0.017864 
0.247753 0.961674 0.686503 
0.262553 0.962548 0.679046 
-0.547402 -0.417593 0.407118 
-0.376958 1.619040 0.370272 
-0.525046 0.174125 -0.019281 
-0.510757 0.165576 -0.023223 
