3.266569395298474787e-01 2.007949856253077314e-05 9.718450075493925144e-01
-7.340988524488167855e-01 4.306897735291828511e+00 8.056450290641201661e-01
2.016576790297928690e-01 3.269982147563998964e-01 5.097904998594717796e-01
1.343773808801700942e-01 3.112234922725077624e+00 8.447750274299905549e-01
-7.116642711701243185e-02 3.425361256649638086e+00 -3.453816382862995304e-02
2.639943154402983327e-01 4.000858977540460160e-01 5.580427933057370282e-01
1.028308929786589498e+00 3.266638697724302709e+00 8.572780822593613070e-01
4.846264881359849119e-01 3.321463669593135659e+00 -2.924595567877856794e-01
1.083679727085322897e+00 4.413321763414239207e+00 1.692819826757889778e+00
1.446856734600214245e-01 2.654760560266373748e+00 3.497525107428463009e-01
6.248623439472831276e-01 8.274135347228857018e-01 5.172190218048031696e-01
-5.481347270782421788e-01 4.640910405861180976e+00 1.489447614974693135e+00
1.618435381648115179e+00 4.085460582439534249e+00 7.700370589644798258e-01
1.707213459189067084e+00 4.776974766727365207e+00 1.368179842660372625e+00
-4.720550498072219603e-01 4.443670378767800244e+00 -6.177483533940124616e-01
1.214323857950996954e+00 4.723579688641653007e+00 1.838407474826801113e+00
1.988657294727541047e-01 2.540839792412223463e+00 4.831347761443418598e-01
-7.710864504840055922e-01 4.755385091089719296e+00 -4.635728753110783806e-01
1.740891828128380947e+00 4.481312268417395828e+00 9.330193169660347952e-01
7.936888778046797821e-01 3.744951131679638223e+00 -4.947750899044482953e-01
4.406616053394828980e-01 4.540325231281028273e+00 -1.034935000141246286e+00
-1.695082411403087685e-01 3.535763674467062856e-05 -1.749601794342413585e-01
1.536898517105020012e+00 4.140893588686607174e+00 1.049265065589993107e+00
3.088601518966186954e-01 3.385618762012710725e+00 -2.363047662369408553e-01
1.939000275331620671e+00 4.709098450744301445e+00 7.595091100538298168e-01
7.910227442067274684e-01 2.940418077588307533e+00 5.271864187589070383e-02
1.336675684018459043e+00 4.524496813814788965e+00 -7.408753157907801423e-01
1.018551326982747085e+00 4.295763700609526836e+00 1.562676302210020296e+00
2.238484818678332378e-03 3.660883184566890769e+00 -3.739694423403941981e-01
9.964852724930362005e-01 4.472537271839651218e+00 -8.931083083477118212e-01
2.256800377812871461e-01 3.462284558537576551e+00 -2.609307371553626353e-01
-5.589191753619839886e-01 3.821014959849756032e+00 5.581085046309475217e-01
-1.942972930680046395e-01 3.212732316547125322e+00 3.814112812003843667e-01
1.793280221273607644e+00 4.598957314347009273e+00 1.164339875846699179e+00
3.803418823420639527e-01 4.704875524273402831e+00 -1.132839173595769022e+00
1.058823870003108070e+00 1.589015106881142003e-02 1.324488039450385513e+00
8.269549657532611064e-01 4.467997615307808701e+00 -8.693129267340198307e-01
-2.793612946161171950e-01 1.865092983548821692e-01 5.151917858990959775e-01
3.288826686272501854e-01 3.535763674467062856e-05 6.225682367620237745e-01
3.242601479070872927e-01 3.745794333875836379e+00 -4.641110978664131359e-01
1.164194042918747396e+00 2.010813175970138644e-01 4.223150882275340523e-01
8.607900407833590783e-01 2.901348937205093570e+00 4.939322999289296190e-01
-2.698834767281301228e-01 3.781588187349299801e+00 1.128636687255552662e+00
5.315927816791570226e-01 1.530159261842634066e-03 -5.490323640910903524e-01
5.586590465406406913e-01 2.014388039567960753e+00 2.705318991222384062e-01
3.393722502461668511e-01 1.368684560225008839e+00 3.114630544124405986e-01
-1.905973818434453793e-01 4.702851581195494290e+00 1.786741369092708087e+00
1.498488488799368801e+00 4.186831800610345766e+00 -2.842944847799188102e-01
1.073014280716338531e+00 4.616722002233011324e+00 1.834596884747369483e+00
1.640544537804553116e+00 4.413510694895634856e+00 -3.213007940742906854e-01
1.160744774396376577e+00 3.846595598455157194e+00 1.229464347478239850e+00
9.814204060652633732e-01 4.632656382276159945e+00 -1.003316503140492033e+00
-7.288349407721326223e-01 4.414223784751280633e+00 -2.800418400158981580e-01
7.554139440902325475e-01 3.158596901856225436e+00 9.138048888914271917e-01
1.424622504075415463e+00 4.289513381982620999e+00 1.240248695979388360e+00
1.833874448388944867e+00 4.482079001016464836e+00 4.506222544574274291e-01
2.279900565693965264e-02 2.574033963402451164e-01 2.754863510681584415e-01
1.543915962652966822e+00 4.110892707225040077e+00 8.123656123797506901e-01
-4.958796123302481873e-01 3.872379876364152818e+00 6.691122250208467737e-01
1.130094102695636593e+00 4.698020474065323526e+00 -9.852535730580056494e-01
-2.656488928358832768e-01 4.803243581178003652e+00 1.823962893809091934e+00
1.479258846827706364e+00 3.999057578059360019e+00 7.900628541858065734e-01
1.108431170861019499e+00 3.535763674467062856e-05 9.431920943063532015e-02
1.980077962819498882e+00 4.752615476775796211e+00 9.732363718177499123e-01
-5.510858337934249063e-02 4.272041629824084197e+00 -7.617619054903723708e-01
1.314964894470611600e+00 1.595243733552136334e-01 2.974170736346561927e-01
3.048576749625569460e-01 2.666707844994332000e+00 7.402035238570181530e-01
-9.935947464509373717e-01 4.627576584009105432e+00 -1.212086123990596676e-03
-2.996913058829166476e-01 3.533460572158235724e+00 5.957643925748694613e-01
5.806551562385264820e-01 2.813353881813069002e+00 2.591939447093094540e-02
-1.099226481054371041e+00 4.710381635577648218e+00 6.098963013585492199e-01
-5.601575819164994474e-01 4.177284936643231639e+00 1.152169989939781036e+00
1.158758815008828158e+00 3.535763674467062856e-05 9.516093694788700930e-01
1.405198905274823273e+00 4.306860943350962145e+00 -5.077427438310431196e-01
9.540822158924062713e-01 3.195220190708117691e+00 1.262399634152296946e-01
-4.890282339629003494e-01 3.902342367177309868e+00 9.469535933764159363e-01
-3.731727929593703919e-01 4.739300967119294938e+00 -8.307317871736394910e-01
5.165419425430517464e-01 7.615461865037878031e-01 2.720821897802085942e-01
5.581662404226668261e-01 2.713201547786437295e+00 7.006474992815316938e-01
4.618135775166191670e-01 3.726485051839863338e+00 -5.383364198974156523e-01
6.970910686244706778e-01 4.547954708374622790e+00 -1.022177335753032157e+00
1.538616130920501313e+00 4.294754042126327498e+00 1.086528405919764184e+00
-7.873558809361863586e-02 4.555967614016299905e+00 1.738283202702810115e+00
-6.039069669549275154e-01 4.700469467070323759e+00 -6.080331503375213664e-01
-4.339336110796942481e-01 4.530948025575741944e+00 -7.190988665056368134e-01
-1.775518375404525062e-01 4.155494534401646511e+00 1.495688095809971641e+00
7.654162643931958776e-01 3.946037817623345489e+00 1.432757340029289006e+00
6.568264373019785385e-01 3.535763674467062856e-05 9.240581606104780743e-02
1.189439051624930022e+00 4.345376015135197001e+00 1.498474604453322145e+00
7.033324016154611780e-01 3.760905450014259355e+00 -5.314169169397102710e-01
-2.246191141177860673e-01 4.398964144969448320e+00 1.640763365378271832e+00
-1.571793639992697389e-01 1.845643883385195139e-01 8.534944209485306743e-03
1.278228992232525174e+00 4.536343650400064043e+00 1.579100455648950740e+00
1.249924859084261319e+00 4.219433557573182725e+00 1.450564597974533854e+00
7.026789716818164777e-01 3.808403186479718094e+00 -4.849287257108803040e-01
2.925629753618369522e-02 3.535763674467062856e-05 6.357255458989117258e-01
1.945416311788958352e-01 4.741853744182427555e+00 2.011530399532680313e+00
2.631230241872441478e-01 4.566574377585927991e-01 4.271677400304484395e-01
7.452596032281129101e-01 4.715607151137441555e+00 -1.117552422084518549e+00
-2.329488146484490207e-01 1.531821079685951048e-01 9.737025395882739076e-01
7.636341190229840592e-01 3.535763674467062856e-05 -3.398252532139223181e-01
2.008339814484795927e+00 4.689464433565182055e+00 7.210728078928567708e-01
-9.528073168253623493e-01 4.609891286455638948e+00 -8.865019138041285718e-02
-3.278958743354121741e-01 6.472372576899765306e-02 -2.780132420453234054e-01
1.201983415153345391e-01 3.464563978679408685e+00 1.179047312091344946e+00
8.090974946691793512e-01 2.807247591079772064e+00 6.925918823583403494e-01
3.650284478585333336e-01 3.535763674467062856e-05 1.905739459769795197e-01
6.328700326175993318e-01 4.089175087889344695e+00 1.551595610460799080e+00
6.574786906475769133e-01 2.825730277514333810e+00 7.319058006855234666e-01
1.838881295863468601e+00 4.782006126007575020e+00 1.167462406008560993e+00
2.261333072591515392e-01 3.979444162764356641e+00 -5.903192909977919012e-01
6.547965978037291190e-01 4.235374955723674617e+00 -8.353396679780733525e-01
7.836990135988328721e-01 2.775080848992822258e+00 4.057900484858237844e-01
-2.404607293410797042e-01 3.677189848327902411e+00 -6.903598569292501708e-02
-1.271932997892600281e-01 4.261549093777752262e+00 -6.368970073485302752e-01
1.841489783054378049e-01 2.963271485920055515e+00 8.209377262030526090e-03
3.390587020751789638e-05 3.873000721597651186e+00 1.313546785606392486e+00
-1.141646582892735573e+00 4.809600987851882614e+00 6.648066261118894538e-01
7.562599765113792172e-02 3.911977567489959284e+00 -5.779837328688566256e-01
1.650156394371646851e+00 4.211096997586265545e+00 2.313273413765355446e-01
-1.145047117555896832e-01 3.272430460161670940e+00 2.165046376909959269e-01
1.040212597771953629e+00 3.406747942338899993e+00 8.554656493098395931e-01
-6.428988397885730954e-01 4.026464454040388219e+00 1.080638123667400086e-01
-3.949376155430221469e-01 3.678187608144440013e+00 3.121003610868352540e-01
-1.120591433380569435e-01 3.318303695235048423e+00 7.360174811978597020e-01
9.040329433009635096e-01 3.505046475483247548e+00 1.070834074493309140e+00
2.820929368855902841e-01 4.320491189933131970e+00 -8.133211585024349155e-01
-6.777375730195298598e-01 4.480158239159266920e+00 1.305371916399954868e+00
4.528447622232018577e-01 1.022130097223296508e+00 6.152147111239207877e-01
-8.121511314703067086e-01 4.423155862339672950e+00 8.612956772249946713e-02
-5.868603776399035077e-01 4.247103036523758313e+00 -1.745151953320115412e-01
1.859943175117183323e+00 4.655958476980612382e+00 -2.329477901510649263e-01
3.641005368375959672e-01 4.812550564499590955e+00 2.046587397067325842e+00
1.249130123197476738e+00 3.913715697396912496e+00 -3.242924233668721401e-01
-4.065401722925782724e-01 4.119403901541248914e+00 -4.061049880248575050e-01
1.106584743229298562e+00 4.685426660669368637e+00 -9.076619945118671318e-01
-7.781293109113238682e-01 4.705124194007986205e+00 -3.982027237403678033e-01
4.526599084854173172e-01 3.804379332400279701e+00 1.463489563195898624e+00
-4.826178904587978269e-01 3.692775782083953739e+00 3.399379043813111068e-01
8.931685910004456552e-01 3.272917454807450888e+00 -1.987701660858920416e-02
5.782667447146294659e-01 1.926538566503488425e-03 1.432788239956779064e+00
4.146708516570570269e-01 2.990466817242334319e+00 -9.089150036636217678e-02
1.536561570689826794e+00 4.385735030910028698e+00 -4.350654374936688829e-01
3.191198317039172783e-01 3.437923123835060935e+00 -2.714641426434651894e-01
1.186162881241415779e+00 3.576036993435399491e+00 9.588818057101990977e-01
5.423526667104157095e-01 6.239095511055501309e-01 2.833405154467278919e-01
-4.778963138957176282e-02 7.379193808278738942e-02 -4.972241493584839134e-01
1.406071020165309049e+00 3.744705447656296649e+00 1.244796023517423800e-01
-3.569909134673796003e-01 3.856623713243567231e+00 9.706563528706750876e-01
-2.549351010549991137e-01 3.457588901534656145e+00 2.951384276408124396e-01
4.812338323196015399e-01 2.318464934681725431e+00 6.365814880475557658e-01
7.067816300792035822e-01 2.504428861183584765e+00 5.309980351504079987e-01
-1.833487897875967776e-01 3.998362241807674522e+00 1.285871112881695089e+00
-2.434786472694617232e-01 4.560440231195246774e+00 -7.810893335819764083e-01
7.439755293063985420e-01 2.257820758308994868e-01 -9.308432730357552032e-02
6.715932753447646508e-01 3.535763674467062856e-05 6.259035885666743848e-01
1.004791446437486857e-01 3.374778522278660375e+00 1.019100566912324979e+00
1.101040862192947944e+00 3.585445208436601305e+00 9.558335993457052204e-01
7.516098958878103531e-01 2.851642353619299186e-01 6.754233207698250308e-01
2.809044312581518432e-01 2.405967340424330914e-01 9.460382854739184388e-01
-3.516657637917308121e-01 3.682533185261519293e+00 1.330919491446987957e-01
1.007397578493509638e+00 3.144883821446302186e+00 5.307598191173319435e-01
5.283763945213433288e-01 3.324267101565278715e+00 1.169739953842441116e+00
7.435228588496924917e-01 2.710284021195457083e+00 4.463356635606590128e-01
1.302715206043398855e+00 1.589466826032843727e-01 2.278312530933960245e-01
7.838629517853274997e-01 3.213876426877153136e+00 9.362286286584349249e-01
1.986988837320657342e-01 3.228475016526807906e+00 -1.799676155821569035e-01
9.323057615727128322e-01 3.706629274027006815e+00 -4.078469910576971724e-01
8.137381391695954758e-01 4.443462296680174894e+00 1.735102399884171032e+00
-5.046897094884443824e-01 1.218277075509810459e-03 6.160002247742348835e-01
7.592326575923553644e-01 3.078671247898569163e+00 -6.939354488766213969e-02
-5.842711955426427295e-01 4.721886196627954391e+00 -7.447557118208190108e-01
-3.099661161097191919e-01 3.444641906441362700e+00 6.461168596666584385e-01
1.500285828687765832e+00 3.904777871861528915e+00 9.851976241765103559e-02
5.746302604106185985e-01 4.800165242945411137e-01 2.784064833501802561e-01
1.262142408538833527e+00 3.663513912543649553e+00 -6.389594412969046289e-02
8.403581223369054332e-01 4.465749736255249402e+00 1.818328884403628720e+00
5.007549732723384217e-01 4.793147924435276153e+00 1.998144924862828464e+00
1.547859394778938746e+00 4.810611400538855165e+00 -7.161150450891713426e-01
1.663748227420691173e+00 4.398884516881868656e+00 1.144798369442986630e+00
1.935050661163454588e+00 4.757240656145855340e+00 -2.155923305071701934e-01
-3.401567995646342935e-02 2.967960110545704300e+00 5.673235906373546023e-01
8.282608279485261793e-01 2.299598369528181863e-01 -1.965149986299175033e-02
1.201427395029798895e+00 2.045187265099279728e-03 1.135066944102138153e+00
9.645910485784070509e-01 3.841204534231850154e+00 -4.836101151057274894e-01
1.282057663165115491e+00 3.535763674467062856e-05 2.658544964544463651e-01
5.293277292634829267e-02 3.178360318492155834e+00 5.425132054037595797e-02
5.626874853364971507e-01 3.005226310975761983e+00 -1.144449127296232049e-02
3.426719251676347278e-01 2.748700305746409001e+00 7.104934209817863611e-01
1.663439383007548344e-01 2.388604581161617446e-01 -1.750549340466500681e-02
8.654404331394371930e-01 4.501935724316474818e+00 1.757719247580022293e+00
1.490759617613476862e-01 2.983384574248347576e+00 1.275066562584975527e-01
3.894317165597476760e-01 3.746994516999244240e+00 1.425478185576155798e+00
-3.782129330361449493e-01 3.672299034681848262e+00 2.430966062153577800e-01
-4.938931955565439846e-03 3.535763674467062856e-05 7.555583366072344820e-01
1.287499512946699065e+00 3.866311881636387948e+00 1.116417316764496848e+00
1.444301863516291418e+00 3.847644403986003603e+00 4.953946524090792058e-01
9.538122899852417014e-01 3.187141655707967480e+00 5.261251072956607544e-03
-9.349370356896974377e-02 4.318564255016745790e+00 -7.756560163831422994e-01
1.277795827601688194e-01 4.439730746841371811e+00 -8.558060918619829760e-01
1.302815839797304864e+00 4.214125636702976685e+00 1.303382567804416858e+00
4.603339587357144214e-01 3.738939220505361316e+00 1.349241821224584914e+00
-6.715158063990354087e-01 4.714257749971457301e+00 -5.472299630879802201e-01
-1.941842462986392848e-02 3.227279274726159386e+00 -2.646420067143162580e-02
4.362759501375401139e-01 2.839948849442155421e+00 8.811877587787564359e-01
-6.175675672042695297e-01 3.956018189331401036e+00 6.981741912438910180e-01
4.767065878884562680e-01 2.387712796232914769e-01 9.868840731479655570e-01
1.882896217012061779e+00 4.444376297742380189e+00 5.077391095925634090e-01
4.333166034474385531e-01 2.081005298355269595e+00 6.272416499898774145e-01
1.737548516515102115e+00 4.377952324573173293e+00 7.288533783556061518e-01
1.060257073203684897e+00 3.328309923000046133e+00 8.767823535869507801e-01
4.004794383343517894e-01 4.510572024154801518e+00 -9.417956449462163704e-01
-5.217039958332745364e-01 4.290347650198468088e+00 -3.193033107597036402e-01
4.630987731261241858e-01 4.408050981756288067e+00 1.832161368757365461e+00
8.590342915598350171e-01 3.448108122921635932e+00 -2.689506219495316763e-01
3.095989268638979497e-01 1.305894671877577240e+00 3.532887186324981110e-01
1.156610863707899117e+00 4.169179281395559045e+00 -5.121038187310769096e-01
9.238676478865719410e-01 3.006439722504889112e+00 5.124864908022286336e-01
-2.890465512269572712e-01 4.187414354998200139e+00 -4.714462799878584853e-01
6.231226879801659013e-01 3.008076748720709404e+00 9.596524383934625924e-01
7.886912385630850952e-01 4.662090346469878632e+00 -1.001424303189298648e+00
1.353877072406160620e+00 4.352379999136251953e+00 1.371575196060848434e+00
2.627291020146328981e-01 2.840462525810494299e-04 -4.778262505499928370e-01
6.685220261143214326e-01 3.535763674467062856e-05 5.658732949568323622e-01
-8.815100917997514829e-02 4.567874418893350885e+00 -9.440049846779174914e-01
4.836232883176114217e-01 3.555992704087589829e+00 -3.593392648618094487e-01
1.036643530065675667e-01 4.812014630009421978e+00 -1.107797377759764501e+00
7.642415944602437561e-02 3.530580964353768891e+00 1.202065866504855363e+00
1.683240797186724258e+00 4.485947228451986568e+00 -3.368855054837713858e-01
-1.820774353219604680e-01 3.620554851398138485e+00 -8.848938076331402947e-02
-2.395581766404642488e-01 3.287145152274682847e+00 3.830392502590992398e-01
7.578668879561716309e-01 3.471589793103057708e+00 -2.496505792525082201e-01
-1.014843055040865472e-01 3.187910193255614200e+00 3.907798385124776619e-01
-8.910542792720788086e-01 4.409006103823967848e+00 7.439906085017817805e-01
-4.080290209893299713e-01 4.436194871439459675e+00 1.543460100036659455e+00
7.407835611651036878e-01 3.972031562164984209e+00 1.532622600185747475e+00
2.653851358380974745e-01 4.542231961132154439e+00 -1.022227912861092936e+00
-1.831476499568070460e-01 3.694455409113749589e+00 -2.625221762693583649e-01
8.277251228965865071e-01 3.680149095703377782e+00 -3.585417143816485019e-01
1.135869534420301141e+00 3.214387600090830244e+00 4.323012945252086014e-01
1.322179155762025937e+00 3.537516591730203608e+00 5.655530968117779000e-01
-2.120778169047048967e-01 3.535763674467062856e-05 8.596383497110142713e-01
1.296619604775455459e+00 4.621115332806299492e+00 1.629703066781443388e+00
1.504836255346826412e+00 4.098747583937498717e+00 8.918075317949769598e-01
7.705939111441442169e-01 3.163989991138784763e+00 9.995148501518755779e-01
3.048548102044275621e-01 3.535763674467062856e-05 -6.244539649041036533e-03
6.637053038830714735e-02 2.774943280313440841e+00 4.853456706771192009e-01
-5.068759313419461954e-01 3.846105351017127916e+00 4.316609434548386304e-01
4.776695093450052387e-01 3.744519341361736142e+00 -4.748209111317029940e-01
-3.089215760767411445e-01 4.120287376893934983e+00 -4.974751819583904666e-01
-2.799134670721798446e-01 3.989132580409216811e+00 -4.170071389372045356e-01
-6.013995068456517989e-02 3.148964874030865779e+00 5.836674774717054426e-01
-8.715656862372369584e-01 4.641042189477999180e+00 1.023068545282464159e+00
1.102211770633063415e+00 1.750280374419181939e-01 9.231361254339740530e-01
-2.286684523908696920e-01 4.810353283557647686e+00 1.905789989167486542e+00
6.895199082081306940e-01 2.968688699776756312e+00 8.167017405119927353e-01
7.331461299323758229e-01 2.523669300147952654e+00 4.581638900253542923e-01
4.048986270615088645e-01 2.413044174696654665e-01 -9.538681915989055682e-02
5.907184908861817796e-01 4.466154495632180144e+00 -9.107133629042243328e-01
-2.230234596121202784e-01 3.375836843913060825e+00 7.635094670093551805e-01
9.296518759016458855e-01 2.880939301472486669e+00 5.193453701356827157e-01
9.717743995532517332e-01 2.962567686192814076e+00 5.551868506645292189e-01
1.104352098451273356e+00 3.162954013266888076e+00 4.114705655342387747e-01
1.100453717954537280e+00 4.094314816388686218e+00 -5.833286895378253512e-01
8.449406160530750221e-01 3.974566872531161366e+00 -5.463716608420012832e-01
-9.899527048500882387e-01 4.651592158923865128e+00 2.693421857492607208e-01
-4.055742504877528076e-01 3.643224887341075302e+00 1.327624315296932478e-01
-4.305738528036510693e-01 5.977260811231843718e-04 1.561206852032089865e-01
2.965518992499366902e-01 2.698412583455648495e+00 2.354788034765148419e-01
-9.761661261168592674e-01 4.688991591674441572e+00 -1.608997097495303841e-01
3.856514593961541393e-01 3.461260754048025134e+00 1.250854458036994910e+00
9.760152864570972309e-01 1.612233970612191314e-01 -2.447024922517144763e-01
1.016844311291465353e+00 4.214258381018964883e-05 -2.110195302533324213e-01
-2.160356588941509393e-01 3.475677984469369264e+00 8.985138663845184670e-01
1.091843366030729401e+00 4.153709138573351112e+00 -6.307733279878600108e-01
1.966306483234820934e+00 4.694489903393033181e+00 -2.666941218468821262e-02
1.305289968207775209e+00 3.969815460575913058e+00 1.076571363410988802e+00
4.937444712220132037e-01 2.460511140563637067e+00 2.064661189345725623e-01
-9.267919627004017613e-01 4.629158975415199606e+00 2.807523525556432364e-02
2.369538147457988519e-01 3.722298771116802740e+00 1.308677929366016901e+00
8.484431733131982956e-01 1.852784888506828764e-01 1.094076798393568861e+00
-7.478048884869409330e-02 3.117754613644736494e+00 1.653047351957185329e-01
1.587079340061592347e+00 4.235307180830189644e+00 9.119404951615184274e-01
7.204309270260187414e-01 4.031663294720603474e+00 -6.969440038296710327e-01
1.892393903786221632e+00 4.475060025339040237e+00 6.157436619420408874e-01
3.423952987343638621e-01 3.034779735301059933e+00 9.001184736971190592e-01
5.969338865309253839e-02 3.574186902362887608e+00 -2.594738701181256157e-01
1.417625675444667444e+00 4.636556392278710526e+00 -7.652081174386420326e-01
2.012709207547682677e+00 4.799778506995814098e+00 1.835894953044292510e-01
-3.079606561120883934e-01 4.193674771376962873e+00 1.433711255103396143e+00
4.018663589759403076e-01 1.826345889893823626e+00 6.146683547826059524e-01
1.627085128602169029e+00 4.568618375185579339e+00 -3.792877635134546122e-01
1.948518492550459058e+00 4.669007026534301552e+00 4.198085283705793591e-01
6.800785982185373335e-01 2.036469159794052075e-05 1.122035270119845940e+00
-6.774637515220951478e-01 4.179127997224651558e+00 7.163762347341120496e-01
1.246852318752127875e+00 4.488718693288057615e+00 -6.875938535886101377e-01
1.083998129256654286e+00 3.311611342479905851e+00 5.377475917558871554e-02
1.065745132969965203e+00 4.478610811553976667e+00 1.745476386149631409e+00
6.891823211233074620e-01 4.471366055178028098e+00 1.779256662167215008e+00
-1.576384925953037697e-01 3.234542239468280123e+00 7.003624904416196895e-01
4.103303928557094915e-02 3.587996758142274700e+00 -3.448971896246776359e-01
8.755121999734416516e-01 3.803409833454900912e+00 -5.010799199628248601e-01
9.835741350188094145e-01 3.169499281567220716e+00 2.147023842641020419e-01
2.534929141153304255e-01 2.813088138959485285e+00 6.956491556470889570e-02
4.640407992860072217e-01 3.209668021123312176e+00 -2.250549027819577219e-01
-4.532185861831142248e-01 4.811441944672012916e+00 1.727675785693657762e+00
1.054656822729249654e+00 3.244379404204990713e+00 2.779894001602346565e-01
-1.069255554604001013e+00 4.653757082510353804e+00 5.635753720565408464e-01
4.315305057297817437e-01 2.254769497857282978e+00 2.474729017040631085e-01
1.112326188015857920e+00 3.312870091353511626e+00 5.271661142192054506e-01
-9.572780502965165805e-01 4.640630027716468931e+00 7.606944968892226377e-01
-3.683658534213560265e-01 4.485844000493159456e+00 -7.335375627113309704e-01
1.256581302968943437e+00 4.114724903494950681e+00 1.263591640154773543e+00
-5.158799465271206586e-01 4.492584791667576738e+00 -5.152407428855816374e-01
6.585507039735125634e-01 3.279165757284171256e+00 -2.411695662662201034e-01
1.017726029161804435e+00 3.583630996100007238e+00 1.042036535962993060e+00
7.934543733443361058e-02 2.722825650077735915e-01 5.880275711218037049e-01
-9.970414533181942707e-02 4.134520974325143428e+00 -6.472680267201180726e-01
-2.295428286957392205e-01 3.426205000921909605e+00 8.182172931604416721e-01
7.741849796725180921e-02 3.607427246393299036e+00 1.254685825138793120e+00
-6.835715229777501456e-01 4.793912560179754756e+00 -6.125123546506920924e-01
2.764425655450838959e-01 2.397972937628596313e+00 3.569159073721041020e-01
2.708043368935881268e-01 3.164820054359136492e+00 -8.307605324011990700e-02
1.201261959843801796e-01 2.242268109594602876e-01 9.331013820134257397e-01
1.127481003711356289e+00 3.703000439417530210e+00 1.035385093641351339e+00
-3.073191215907162266e-01 1.144908469453413957e-01 1.102883768796195652e+00
5.793393824354242660e-01 3.535763674467062856e-05 -2.048712016697640248e-01
-2.873497021447574684e-01 4.675798188182583637e+00 -9.216267455278552845e-01
1.862931721752003167e+00 4.421483144422543532e+00 5.843863804444218157e-01
4.708695391760069904e-01 2.395605206793990138e+00 6.475859659496396858e-01
4.379077101068512556e-02 2.883155964604751986e+00 6.363078508776827125e-01
1.609743708504506876e-01 3.925961731871049132e+00 1.493642541988389638e+00
-7.166676856496287940e-01 4.076214537557335760e+00 3.325741213995936363e-01
-9.704453552185392518e-01 4.561059629962939788e+00 8.109033398727072406e-01
-9.684037591462579808e-03 4.810451420691460811e+00 1.990771624242467785e+00
1.136420834693323334e+00 4.103943952979715704e+00 -4.774830349980768718e-01
-2.229051435825116223e-01 3.420168692983758252e+00 2.582884479142610878e-01
5.316285551935377995e-01 3.987683730273179350e-01 6.683157777730173166e-01
-4.325926738901454960e-01 1.247680386772103134e-01 2.970410259151945453e-02
3.525142907527054059e-01 2.626803721037818562e+00 5.013353660490615926e-01
1.223110819743068678e+00 3.960529840081123965e+00 1.163780489167171250e+00
2.307087171347783072e-01 3.535763674467062856e-05 9.069648394987903650e-01
1.059372109818022545e-01 3.953532045701275699e+00 -6.159230360151766170e-01
1.604575256477899781e-01 2.699833161006642612e+00 6.280199977135660916e-01
3.445117225712697739e-01 8.641336593027426627e-01 3.161515557493070894e-01
4.343196316474661756e-01 2.714676859662895403e+00 1.636453629080707461e-01
6.424799723982588251e-01 2.470932567899756016e+00 2.751461968660817714e-01
9.095206375001338994e-01 3.984265376002071424e+00 1.484290479315297340e+00
-1.171897209295896802e-02 3.499671451726185545e+00 -2.492899824197396530e-01
1.195492626061343877e+00 1.401838871445475476e-01 -1.465328129603964413e-01
1.381500705207804547e+00 3.778471529291751452e+00 6.412100856753584210e-01
1.021638718731993967e+00 4.808771591227209541e+00 1.969849923774745326e+00
1.934887547141185937e+00 4.642848247624289826e+00 9.000695550342792117e-01
3.486928577992577938e-01 2.981402891169066649e+00 9.521711188283397131e-01
1.117539941399637859e+00 4.005110860830940034e+00 -5.072588012784779998e-01
3.052947683507389320e-01 3.735448420975099104e+00 -5.300947066429879673e-01
4.536777754352088743e-01 2.247219738471166295e+00 6.331461451801920770e-01
1.007739631329712227e+00 3.226065693882259389e+00 6.941119100359531835e-01
-5.547121281378524227e-01 4.332399951834630336e+00 1.196189766472290472e+00
-2.911456524618966646e-01 4.626634827647850834e+00 -8.851912610518395397e-01
1.903320758189027129e-01 3.225273843294993448e+00 -8.741526018249179408e-02
1.843533776787580902e-01 1.142456780645062508e-05 9.778237070453839053e-01
4.369453422764600359e-01 9.511739444074136518e-01 2.658011598451738289e-01
1.122496922093084271e+00 4.047832210297954703e+00 -4.451978394583058218e-01
-3.960005938375321111e-01 2.699934138151505181e-02 -1.908453627629180804e-01
7.519431728902172818e-01 4.413825916241014724e+00 -9.288947723990084171e-01
3.726919296515914248e-01 1.038167459025197248e+00 5.877109388779648835e-01
-4.909244222672183855e-01 4.076385239338779165e+00 1.143191362763672725e+00
1.265345387068366856e+00 4.113801790412790815e+00 1.354559458679573503e+00
1.745963500160589543e+00 4.347378734010042933e+00 5.585236995927169712e-01
6.465424906709031916e-01 2.122258432892608848e+00 5.128983137301246220e-01
1.926558235813329856e-01 3.134187852678859798e+00 -2.443535190287415837e-02
-9.971557314114289916e-01 4.527877011962329945e+00 4.720927469496855045e-01
9.632108493637718816e-01 3.176582433678234452e+00 7.140897711658364955e-01
2.268608564784935777e-01 3.098180204199607601e-04 1.329832798353628665e+00
2.886829634179649551e-02 1.125819526818547800e-01 -4.885712270356754594e-01
4.507755918372700621e-01 2.773065720929971611e+00 7.534796874021201241e-01
1.386068434254717596e+00 4.264954116333920631e+00 1.368496921914227116e+00
1.409833983094425758e+00 3.778400211620923876e+00 7.441041468769893363e-02
1.629673411181528753e+00 4.527300614124707856e+00 -4.569585647101621628e-01
-4.270433924431062400e-01 3.717212468160481897e+00 3.958445491658658666e-01
1.652697441237986453e+00 4.295094420840678495e+00 1.032703085693224665e+00
-2.432087959508884567e-01 1.063121278206402565e-03 -2.420661231400608182e-01
-2.750474001075992603e-01 3.589785838941716101e+00 9.653005010669823971e-02
1.778922882318850207e-01 2.838170299966396470e+00 1.058321339070268374e-01
1.096917308636907507e+00 2.065802388892725716e-01 1.944048588496820607e-01
2.224226782469875263e-01 3.473810001007258119e+00 1.224909153335534073e+00
1.349820142074851792e-01 2.988395736941069192e+00 7.398355395635900500e-01
4.402792768205915364e-02 3.011863935879124377e+00 6.252986020797410838e-01
3.390771426124649657e-01 4.545515526140905926e+00 1.910457214738916276e+00
1.207009316471083560e+00 5.550994565597378028e-03 -2.983342839748526210e-01
6.333467358084534649e-01 7.954593063178070356e-01 3.818342097211047115e-01
-9.168955430726871692e-02 3.535763674467062856e-05 1.580276235291075970e-01
8.441758892571260553e-01 3.289535170681032739e+00 -7.343066829831990106e-02
-3.699093082410790934e-01 3.809802042745832562e+00 1.033111693672215559e+00
7.465124984210663728e-02 2.975358406740432837e+00 9.451346065774990368e-02
5.056456774291966383e-01 2.517568333121692703e+00 6.979365515665194586e-01
-9.565838696827888565e-01 4.463194431664994077e+00 5.006021478862412444e-01
6.391161179703193085e-01 8.209790834740271492e-02 -6.131866899943818616e-01
-6.073653216108412245e-01 4.780139560920160235e+00 -6.766299234549724151e-01
4.235762837521474533e-01 3.548792325369785061e-01 6.931569397190942006e-01
8.612683820901574361e-01 2.796117176955209338e+00 2.953441220999166728e-01
-2.609731899794182630e-01 3.485728625930208935e+00 8.359560934359555606e-01
4.096318295544781884e-02 3.572955803971386679e+00 1.125112019127402885e+00
-8.829924618835577332e-02 9.851084070800286696e-02 1.331604733200925983e+00
1.759143361411014794e+00 4.366805318022816351e+00 3.339067640665775993e-01
1.100176692592830463e+00 3.179179426086140126e+00 5.750519638394422373e-01
1.436403946215126237e-01 4.107345864839896166e+00 -7.260178891423398895e-01
1.268477754386686085e+00 3.627883602072463631e+00 1.731820144055050692e-01
1.325610314448595117e+00 3.530554450267603617e+00 4.919668801860719309e-01
4.606030728057369794e-02 3.535763674467062856e-05 -2.587426759926096942e-01
-1.766380842903991222e-01 3.347645986705504839e+00 6.202911309438610132e-01
6.443966878117612929e-01 9.056970195546993896e-01 4.331128590233286335e-01
8.604126441959507599e-01 3.147627966988099324e+00 -5.054214375856547203e-02
5.157781601000339666e-01 3.672545807058313017e+00 -4.295859465581401970e-01
-9.142106983844260348e-01 4.767981074741670433e+00 -2.425721926438699771e-01
9.590205120867207889e-01 3.067781586909521074e+00 7.469898814908266793e-01
-3.305448023047424799e-02 4.118808196876855732e+00 -6.691160375722717824e-01
9.333368303894593598e-01 3.349097290095240709e+00 -4.633181420998211397e-02
6.275051472200723346e-01 2.886066554417978658e+00 8.820254111699199484e-01
7.914499855765100289e-01 1.264804137098822778e-01 1.368604231841591856e+00
1.636322711385707618e-01 4.613977848837742535e+00 1.852015902773567424e+00
1.990791200040365472e-01 4.584368630195561067e+00 -9.628654462826775617e-01
-3.295367193901028169e-01 3.844381182256419116e+00 1.119269586739427558e+00
1.146779514941612677e+00 3.429539711220595866e+00 8.581950486639338127e-01
1.488521656443217989e+00 1.049521384400620150e-01 6.593764816868672440e-01
-2.787266829065643270e-02 3.218729921406593419e+00 7.598056732552966874e-01
-8.608326930664462751e-01 4.306324250494626860e+00 3.832008903641930253e-01
3.858133095101438648e-01 2.632955093916820921e+00 7.521002954436941668e-01
1.792231994269486428e+00 4.528610036109252057e+00 8.758643452254315509e-01
1.391066351490861663e+00 4.545108564190356581e+00 1.592810412407021925e+00
5.413282087848030333e-01 4.690012172708232896e+00 2.002567405976005688e+00
4.829345971258150461e-01 3.393618117150667857e+00 1.213945715845708095e+00
3.665959551817879469e-01 1.561239657036823658e-01 -4.260271713472516542e-01
1.449997446039620996e+00 4.315046285112750013e+00 1.346454249160432326e+00
-5.696922375692997642e-02 3.130564998320376269e+00 3.294688274662462835e-01
1.903597592460414489e+00 4.812722043874829936e+00 -2.681070078892791031e-01
7.537950225489714606e-02 4.775301699954319190e+00 1.934933541343917263e+00
1.351923445327025464e+00 3.731003401253217167e+00 1.347585325374955900e-02
7.764497682384141619e-01 3.708437291547393322e+00 1.275970169680374466e+00
-7.456899277680534288e-02 3.535193597628560003e+00 1.006136760794072105e+00
-2.996185475421084266e-01 4.281687296195553216e+00 1.414913032660860104e+00
3.335676385840574687e-02 4.667092962120150901e+00 1.851698462729265415e+00
-5.825548536137152844e-01 3.859482922914053926e+00 3.203043567573411465e-01
2.721125533067568214e-01 4.612018378688517828e+00 1.869933494267126628e+00
6.511803671379108316e-01 1.700403683665016930e+00 3.992073136877769546e-01
1.425918375504509505e+00 4.207416385419143090e+00 -2.801053186514714799e-01
-6.955419683000645392e-01 4.787149273336202882e+00 -6.900729180572300336e-01
1.618524220198354069e+00 4.420113097881600339e+00 1.101905404146608980e+00
5.115091347453776249e-02 1.986614339083727643e-01 -1.286109005707473107e-01
6.722951685038707215e-01 2.635016937243721991e+00 6.928218952344480375e-01
-2.094085302826364514e-01 3.535763674467062856e-05 4.863215592489806838e-01
3.607727961881257994e-01 2.354146423629133622e+00 2.691200207155832747e-01
6.577676264804264150e-01 3.119929014929114786e-01 6.649016407560712771e-01
1.812624793861342454e+00 4.563737103516214866e+00 1.079530205335699211e+00
-8.458485029834426072e-01 4.812431449051633336e+00 1.339865084013539764e+00
5.554297488338963973e-01 9.299014411001405023e-02 -6.154882114237067992e-01
1.578883843142209198e+00 3.944349598089855746e+00 4.600770625951110526e-01
9.287141533183536080e-01 3.686167987672909874e+00 -3.092405850752528718e-01
-4.123598696710435996e-01 3.999292820754489775e+00 1.044942352967885846e+00
7.895074496735683400e-01 1.488560729093562074e-01 1.279273461013498814e+00
1.578280963172124629e+00 4.629579326516964244e+00 -6.129454434658305750e-01
9.507630801483999416e-01 3.534289924955278828e+00 -1.810388875430029021e-01
-3.856771213473896842e-01 5.215587465645654675e-04 3.354239718198470666e-02
-6.160405209251101910e-02 4.068279647275035771e+00 1.499242550062764190e+00
9.875018218441093953e-01 4.455286130171588255e+00 1.763173912131140053e+00
1.366036974459382325e+00 4.437689254484384449e+00 -5.535714722314772906e-01
-8.191453558065333596e-01 4.459283332794164778e+00 1.047296299553762022e+00
7.923427801655014147e-01 2.634260310804245719e+00 4.703650279381615951e-01
2.787889623422162289e-01 2.210542043657228284e+00 4.760840701378786788e-01
1.257059979358075008e+00 4.198841103580773115e+00 -5.511173373704816303e-01
-4.137196731527685301e-01 4.577874399677491546e+00 -7.701753718721797703e-01
-3.483657906943979365e-01 4.488859764727715529e+00 1.537202504019385962e+00
-2.061590500686876770e-01 3.733043848955398758e+00 1.151011272961771414e+00
6.089645673126893310e-01 4.619184224641512237e+00 -1.003295992362055022e+00
9.436683350537096171e-01 3.747102658382461371e+00 -3.438327557136113821e-01
1.885914407258105219e-01 3.364456668010783247e+00 1.059454441239264799e+00
-5.061723420493686731e-01 3.723830087109632814e+00 4.689165187889402509e-01
-2.707248507012652294e-01 3.883798794269181620e+00 1.110386526940146057e+00
-1.084565086123545630e+00 4.684748622646480953e+00 2.762841774605737655e-01
-5.544523638028062695e-01 4.778400322077914097e+00 1.601620019705641607e+00
5.126854572574186530e-01 4.347921174059999672e+00 1.794670296358674477e+00
1.119089645881911621e-01 2.410035900255538266e-01 8.429974815743579430e-01
-3.797934638558798093e-01 1.826312224082471403e-04 7.255530904055194075e-01
1.793946224168206705e+00 4.477790361419279108e+00 -1.147339638528259709e-01
7.187349295241971525e-01 2.947571754033617708e+00 8.802668010143785970e-01
-1.853605941734864926e-02 4.566075441595157436e+00 1.768631957529744447e+00
1.686199803035791089e-01 4.677693462440578820e+00 -1.015381441246725913e+00
2.936362458210705628e-01 1.473089482481176882e+00 4.920974170265701719e-01
7.253959292863572106e-01 3.585777323662382443e-01 4.351617046284403933e-01
-9.354564066728232596e-01 4.426439068096057028e+00 4.335334108726196511e-01
9.449664206333591165e-02 3.418252539003913348e+00 1.134605739173931260e+00
-5.422118068034846861e-01 7.368079607519284480e-03 7.229099525021296380e-01
-1.104814967597557374e+00 4.808665610202845109e+00 4.867541694599208935e-01
6.469059577169378183e-01 3.535763674467062856e-05 -2.664346295009968335e-01
3.003712948763515578e-01 3.595788596936783321e+00 -4.429042798794111668e-01
1.024115383082515596e+00 3.782336507440564155e+00 -3.159339477956758513e-01
1.397164031112015925e+00 3.777968051435556696e+00 3.318281151071943436e-01
1.181116966287299452e-01 3.043203459928456311e+00 8.804168429967298426e-01
4.331221262377103476e-01 4.307461223481345414e+00 1.696518982638829387e+00
-1.303839400479510080e-01 3.443450524918002742e+00 -9.898822893241354670e-02
-9.881905927529408551e-01 4.658771728311223548e+00 -7.867444320855498940e-02
4.621486730557956002e-01 3.338214960211985272e+00 1.103759937561735072e+00
1.551398756886524399e+00 3.984985235518423430e+00 7.799444620713502641e-01
-1.064154470280185838e-01 3.375077196289739234e+00 6.278978129406487252e-02
9.755023110219496196e-01 3.343784447657675685e+00 -1.074717513628771215e-01
1.868891209897208250e-01 3.535763674467062856e-05 3.504308895151413417e-01
-2.917708470226715867e-01 8.272598619418758403e-04 -1.515383113563637529e-01
5.213311986168711609e-01 4.220887864297255376e+00 -7.651028766342069520e-01
1.151844022912932086e+00 3.535763674467062856e-05 7.596712630526794019e-01
-3.202563006559756009e-01 3.535763674467062856e-05 3.392866595636455651e-01
1.223871680073804202e-01 3.535763674467062856e-05 4.880548676426087473e-01
-1.067630426159197565e+00 4.809797823027244235e+00 9.700406768321412354e-01
3.938621103440525517e-01 2.679386737548522746e+00 6.812197223408729130e-01
5.382482750601900179e-01 3.820119000806405651e+00 1.396507543261848117e+00
2.831875496353709054e-01 2.999810087640951473e+00 9.439278741252148386e-01
7.324662003396607002e-01 3.055217461312409455e-01 2.819162014101073144e-01
1.505018515556605596e+00 3.974021114280463784e+00 6.340515724877793247e-01
4.573776788306194718e-01 3.468102435615734613e+00 1.259161982591933793e+00
9.786591294834070531e-01 3.085779344342636676e+00 4.511527439745480761e-01
4.888177876912211395e-01 3.659952955263128693e+00 1.300766987168963329e+00
6.363103686079421006e-01 1.988534811808775782e+00 5.298825479271849215e-01
-3.457715496988365556e-01 3.627487904279782072e+00 8.597463085283161277e-01
-8.398644941591983937e-01 4.697178677100026789e+00 -4.274135028523219360e-01
1.565786622978809994e+00 4.601827489606087340e+00 1.369379172419182611e+00
1.476562694328626524e+00 4.691500438241710924e+00 -7.601411297833584602e-01
1.386692207897368023e+00 4.188298879860085755e+00 1.189113650624466612e+00
7.511016322533050626e-01 4.270590450878151145e+00 -7.639729143116213983e-01
-5.300246717781211814e-01 3.785706979828559859e+00 6.084667318750562881e-01
8.635671745624493578e-01 4.024184009171644760e+00 1.528456697777585305e+00
8.623993064974742051e-01 3.921732003925857857e+00 -5.046326950577908477e-01
-6.820850589050031498e-01 4.333351278520748195e+00 -1.068801006886729299e-01
-1.893534276667713234e-02 3.075989708096152242e+00 3.140099355459162744e-01
-1.397392186949603099e-02 4.432086499733734364e+00 -8.049367810747720675e-01
6.528595176809650624e-01 1.882635694619399391e+00 4.825800995579074826e-01
7.443952093538055426e-01 4.377487775457169938e+00 1.785620933581616887e+00
-1.149861304866137024e+00 4.785582489497409497e+00 3.509927947589267516e-01
3.841403090922129726e-02 4.372122306706550887e+00 -7.851869329006573306e-01
-3.297470465377378424e-01 4.055866427539180030e+00 -4.269570849681225688e-01
1.146646348868594623e-01 3.266367385487594532e+00 1.040568288766241967e+00
-3.621637707877241596e-01 3.539936551784999885e+00 6.743283999123110828e-01
5.655942938722700042e-01 9.398885380906911724e-01 2.918786188291572214e-01
6.356185619023624334e-01 2.899148037127650568e+00 7.962459892166560138e-01
2.092978793091470280e+00 4.797783882006507739e+00 5.385480862012244074e-01
6.619965143366490778e-01 4.668271486800455783e+00 -1.027586214694337530e+00
1.000971874040975096e-01 8.218653658824504049e-02 1.438733174033873574e+00
5.582244739086954510e-01 3.656523510071562733e+00 -4.916051735437529935e-01
-2.720232937884014546e-01 3.711020472412811966e+00 -1.836485899010835698e-01
1.184991506954292673e+00 3.307450310567046525e+00 3.375620758330295512e-01
1.647072649394440980e+00 4.784516069557557039e+00 -5.733320876074137207e-01
9.181294201798497756e-01 3.055771737262280574e+00 7.924871090934013651e-01
1.042744307925594249e+00 3.535763674467062856e-05 6.833693687579254217e-01
7.408466907521369382e-01 4.469679420912667567e+00 1.843802710468058992e+00
3.499851539647946264e-01 3.737420928026846667e-02 -6.270933081026504041e-01
-6.489420877827054568e-01 3.957475367757249618e+00 4.464086685071990690e-01
6.563396059230501844e-01 2.835997027435340545e+00 1.375900462479584530e-01
1.871938266832685827e+00 4.811915454455505170e+00 -3.660958190036915916e-01
9.488152424206803826e-01 4.172062220061708793e+00 -6.340436717655402177e-01
9.823883429188133842e-01 3.535763674467062856e-05 -1.126261068404967869e-01
1.527454644963626595e+00 4.802117538459247825e+00 -7.987728686826578439e-01
7.289851786192256267e-01 2.646923056860229995e+00 2.324730601620874637e-01
9.749686475696492938e-01 3.035737889233680598e+00 6.779434635626284678e-01
-3.517657041978856092e-01 1.687828890167830664e-01 4.059809328562902220e-01
3.442715171232699212e-01 3.961505570086068850e+00 -6.745772846079081120e-01
-2.668539699403180143e-01 3.535763674467062856e-05 3.963135946019923361e-01
1.084252218163315185e+00 3.431858578284086470e+00 6.042916605075610015e-02
-1.008339633258279022e+00 4.795440584734306455e+00 9.437776140703881822e-01
1.323392912365123797e+00 1.870094211051664956e-04 1.260892222291408737e-01
7.718725970706445949e-01 4.381469512753802142e+00 1.706561755262747671e+00
-3.220128314857770291e-01 3.419966056035702362e+00 4.502039990220497723e-01
1.413718673118903979e+00 3.986544935483317786e+00 -4.598887255134154195e-02
1.315146616844738103e+00 4.382253611038496643e+00 -5.530924521657736292e-01
1.328388405006653006e-03 2.890146644817223720e+00 5.093136628879197936e-01
-5.533173784265019712e-01 3.924860270122302097e+00 3.791450248356968977e-01
3.829357428154925302e-01 4.047961228340033912e+00 -7.312363738418419246e-01
-3.874722571564794271e-01 3.912558479451881066e+00 9.865448940369081487e-01
1.191782794523307931e+00 1.150623107715036397e-01 -2.809480139232714002e-01
7.907510468436902418e-01 2.996003715504792275e+00 1.181195507140229140e-01
-6.930556766516291489e-01 4.799391824829618791e+00 1.486194337991569636e+00
5.940896289615658077e-01 2.847646474599566879e+00 7.787579933417185796e-01
-1.978514430827650883e-01 4.524407281921278390e+00 1.742639658065106012e+00
6.084382361977642706e-01 3.535763674467062856e-05 3.673736616677045763e-01
1.242745605731090608e+00 4.210838879399489976e+00 -4.770296708436339017e-01
6.240029978314649561e-01 2.077862671092773894e-01 -2.119537276121330471e-01
-3.989787052262829259e-01 1.482532087154195821e-01 1.947944766818405782e-01
8.040047324720183131e-01 3.812662660550119931e+00 -4.559374140393668284e-01
1.030344014019344279e+00 4.555481697839323552e+00 1.812042656993947620e+00
-2.007905920217323836e-01 4.526766350289127772e+00 -8.649049454879869092e-01
-1.085172810861453896e-01 4.175703073877392590e+00 1.465098825110415781e+00
1.060392954086615047e+00 3.980535482546344817e+00 1.404276610160270389e+00
1.005721274756311789e+00 1.266009159634426950e-01 1.263172361790163567e+00
1.170304100867914254e+00 1.555715353016973168e-01 9.592271678464143747e-01
5.856181933913449100e-01 3.535763674467062856e-05 9.602762701176825733e-01
3.635531965259905518e-01 3.850318371429229281e+00 -6.085373203197599334e-01
7.667031948637509364e-02 4.231129810670087643e+00 1.662628353398274195e+00
4.159050007436732033e-02 4.579916289737536950e+00 1.798068384980967327e+00
1.252040684539608595e+00 1.740580023639441976e-01 2.705830429321322006e-01
2.764661272787588553e-02 4.508348712871376840e+00 -8.696006565973624092e-01
6.810161680908963788e-01 4.051502865225486971e-04 1.361331530042317883e+00
1.281459618357569497e+00 1.709452814194190040e-01 4.704705068403521873e-01
-5.710556282831185104e-01 4.279315028403874344e+00 1.242821922149157210e+00
9.046142543922055523e-01 3.547868163763208127e+00 -3.126794042080680569e-01
1.856180188010935428e+00 4.404125536255485862e+00 3.363403310176200645e-01
-9.487311399670623757e-01 4.766288491248195314e+00 -1.646065623858710136e-01
5.214349778205018549e-01 4.635406126120391157e+00 1.896860412027696174e+00
7.079340313573461163e-01 3.258327945936496661e+00 1.006556682688241056e+00
7.063006662865494167e-01 3.116617094305331293e+00 9.114340682001367266e-01
-9.684300047678866541e-01 4.779438909492037979e+00 1.181223084908626042e+00
5.088560655792437881e-01 1.162214842615074462e+00 6.134112000494738037e-01
-6.050163354007098704e-01 3.921261098673523904e+00 2.208489225231108355e-01
-3.582682015084409088e-01 3.953506506915701380e+00 1.071815056358387475e+00
1.753216221100070804e+00 4.434579329389079838e+00 8.067200527987967718e-01
1.326418273830196060e-01 3.443535799796102026e+00 1.086168894922016515e+00
1.204468082508526772e+00 4.046757694318988463e+00 1.352116437077641509e+00
-3.333171910564742269e-01 4.100974704346137756e+00 1.338737312712710237e+00
1.639858697065129878e+00 4.219585992630019433e+00 7.211856562400202897e-01
3.836427240468481270e-01 4.253544182787624806e+00 -7.832464001112424690e-01
1.051534915571524120e+00 3.151674279492800324e+00 2.011442796798521560e-01
-3.579209951016240621e-01 4.002668045385894047e+00 1.231764433910145229e+00
-6.139922576849929925e-01 4.281390334468992975e+00 1.047216695910022644e+00
4.705048111729645544e-01 4.302842272756467246e+00 -8.900714874562762891e-01
4.018273899213930522e-01 7.344780190026398703e-01 5.984267666732374646e-01
6.464330220511989022e-01 1.057684423555246722e+00 4.312039851985774996e-01
-5.705512138116830556e-01 4.070322059647354607e+00 4.105175820177386914e-02
2.972764734659600339e-01 5.376669881465441225e-01 4.594109796912304589e-01
-4.245417490296691798e-01 3.715236021597175586e+00 5.034864975200938897e-01
1.768639624445730862e-01 4.685237852265671243e+00 -1.095894589553299880e+00
-3.124352511820712164e-01 4.083382022740202011e+00 -3.648633331988435646e-01
2.865851721105028838e-01 2.114121406132476011e+00 3.786340761675821565e-01
1.103483093351626421e+00 2.212442988192009352e-05 6.126159255455216890e-01
-7.245205891465006376e-02 1.288281606370933474e-01 1.250484517059178291e+00
6.432458156678340089e-01 1.567626331251102068e+00 3.778790986155133869e-01
-5.573173481172661869e-01 4.301556986837775653e+00 -4.040952219572454540e-01
1.525869906709462320e+00 3.982580134803094474e+00 3.639232820681221892e-01
