8.012200993783975544e-01 1.906906838454343278e+00 3.361874030640054078e-01
4.851976044861741055e-01 1.232355556811441266e+00 4.324696589966573468e-01
2.735372165789766719e-01 1.701085569279814580e+00 5.283183943531678528e-01
6.189973963203763141e-01 1.881830175873226318e+00 8.118824775117600145e-01
-1.416867357624262969e-02 2.178097321207378201e+00 4.254688368998430503e-01
6.769699005718612383e-01 2.259731494003731633e+00 1.037281599046532055e+00
2.384962979492220025e-01 1.976472935441291545e+00 1.711962096995088833e-01
6.382399643895484420e-01 2.167853150443444843e+00 1.486442573139823420e-02
4.646550702736319538e-01 1.617869643623950360e+00 3.031451828816567051e-01
2.109478622069009823e-01 2.169421914222702696e+00 4.696783285248085082e-02
1.026739109988122900e+00 2.199128773663092673e+00 6.598397073211547115e-01
2.094544661270555386e-01 1.910809539842886595e+00 2.976771653905365689e-01
7.741195253013899436e-01 2.230828053875249850e+00 3.230075541528720784e-02
3.701383755549922938e-01 1.886085965670202258e+00 1.904269245314501591e-01
8.817209619117065689e-01 2.184441147579147646e+00 1.175802694647585245e-01
9.013829546197407172e-01 2.121476635872855621e+00 1.991691324485652670e-01
1.741452699511931712e-01 1.971770240290801057e+00 7.675983211252607186e-01
-9.861664163135419603e-02 2.286469762556909480e+00 3.807844134712419226e-01
2.326060725427817610e-01 1.739772593476052620e+00 5.856368975725131376e-01
6.836112598154366893e-01 5.039198652709023785e-01 1.577625123251928940e-01
3.194948445152900884e-01 1.858251355055912102e+00 2.032194725207868702e-01
5.221500772083611519e-01 2.100230456771179366e+00 8.910351455582388169e-03
6.403199813766857762e-01 5.000027139909452023e-01 6.752647098308849349e-01
9.852757071809037370e-02 2.076992083981784365e+00 7.738740250997421244e-01
6.258049727878551849e-01 1.653283495896247013e+00 3.223774742300041796e-01
4.166579228767121057e-01 2.217365017239821157e+00 -3.052261620400986697e-02
4.554762576552519038e-01 5.000129181724519700e-01 4.523750020271586347e-01
9.410533818715260956e-02 2.241318816058228691e+00 9.227362537895623662e-01
8.207721234993816672e-01 2.116430851802411972e+00 8.871538681629437262e-01
6.874716145117927280e-01 5.000129181724519700e-01 7.489864463464185329e-01
1.756809195004833679e-01 5.589395300645565445e-01 4.733842686149468681e-01
3.318428272661994027e-01 2.082752735913576903e+00 9.287864697340909581e-01
-1.010620193776299303e-01 2.272818413512164959e+00 4.381968005597297600e-01
8.893899889966871974e-01 1.955203081646451402e+00 4.082277426161381451e-01
4.425966549755760981e-01 2.283970930838230107e+00 -7.644977617066184283e-02
6.480145437741631209e-01 5.474478805463848241e-01 1.720412653694080030e-01
9.590244326680268383e-01 2.063098250698412350e+00 5.854039082075314093e-01
2.563738103955129910e-01 5.055760244051199503e-01 1.872097194250553764e-01
6.393240816639034207e-01 2.178892762903099189e+00 9.968916113064304474e-01
8.915413955649853506e-02 2.087324024276223433e+00 2.337405345688278180e-01
8.260446607989362366e-01 2.155121428788161708e+00 9.154665327507760519e-02
4.762086978499224799e-04 2.203237263996375539e+00 2.448288334053739801e-01
5.506181485504686446e-01 5.820439485379712563e-01 7.256863702029271446e-01
5.091781063099698468e-01 1.747964335241594336e+00 2.229967858848377338e-01
1.363565725530305750e-01 2.067687966519293319e+00 2.350897094372140783e-01
5.304488478998397039e-01 5.000129181724519700e-01 7.541368748087845519e-01
2.414610419854099632e-01 5.000129181724519700e-01 4.332709329830500833e-01
2.253544953291344299e-01 5.000129181724519700e-01 4.848116734203153921e-01
4.376073419306134582e-01 2.051114967211191242e+00 9.633912007390220689e-01
-6.270801188947960902e-03 2.112544427667502056e+00 5.334367813958752480e-01
9.071530789939126205e-01 2.001185382565762616e+00 6.371415434528709953e-01
8.561262652388896832e-01 2.282604735340980184e+00 4.860964690743962979e-02
6.149471192673505726e-04 2.142713620554045129e+00 6.659195840141790557e-01
1.089290589137156040e+00 2.268436171551296177e+00 4.525086911846003535e-01
2.808412014003526247e-01 1.713714700949717118e+00 5.882646477127869700e-01
6.621489663192148267e-01 2.218384088358014594e+00 1.015190821904298435e+00
8.601060114720386895e-01 5.425483536056820988e-01 3.988783751717616122e-01
7.358317107437641891e-01 1.801853013668305525e+00 3.036848229023439982e-01
4.009276978599786156e-01 5.000994650576753298e-01 1.746852748760922003e-01
3.106401004146164269e-02 2.094975207749324220e+00 4.895332834722503357e-01
2.877289426589615395e-01 1.793327400853379938e+00 2.752228416975291969e-01
9.501730045459189089e-02 2.289132644144025175e+00 9.501330664097190626e-01
4.669355786978778289e-01 2.256934736281840159e+00 1.091803202534966655e+00
3.215174061452972243e-01 5.000129181724519700e-01 7.086922718107432351e-01
4.912918971707262994e-01 2.164031403847304524e+00 1.008513652771237279e+00
5.257704446370137230e-01 1.466088154207003669e+00 3.934955458218838409e-01
9.503707583048512930e-01 2.083526173926685487e+00 6.661555615256334884e-01
6.460271884000323706e-01 1.646987462112510681e+00 3.887297354115518688e-01
-3.647236952250199060e-02 2.160455329883126829e+00 5.098040911494768901e-01
5.355285190999654610e-01 2.071428712401898853e+00 5.500201587325659336e-02
7.854799529945519776e-01 5.203528524817484513e-01 2.292222259831530051e-01
5.644199414030686146e-01 1.257987514998045508e+00 5.160388389450797364e-01
6.941882973749975427e-01 1.644470235703325178e+00 4.158586538157489354e-01
5.384505568570094880e-01 1.684556949355656918e+00 2.649265116652604890e-01
4.841671226165527031e-01 1.661790840761987020e+00 7.007012280598204912e-01
8.251479459961352791e-01 5.000466062824835412e-01 4.855924343984152625e-01
7.229054343164849072e-01 2.009954610140814335e+00 1.597405189178523477e-01
-3.636872178557359891e-02 2.229420955128813553e+00 6.299035720102993396e-01
2.245235176239800401e-01 2.223889714500320913e+00 6.399333441156063174e-04
4.469282673130494654e-01 1.475490301329564158e+00 6.110371527777284095e-01
7.192337102737298427e-01 1.952134318144333136e+00 2.003867220215383993e-01
2.058143289758158634e-01 1.809910736013674581e+00 5.197809971650105831e-01
2.767794810293124907e-01 1.799314057879173756e+00 6.829342045965788310e-01
4.273165240813270316e-01 1.164165054747948513e+00 4.844158087574259586e-01
9.821366910956963459e-01 2.091179413831170564e+00 5.394837021698449808e-01
9.031280700564019437e-01 2.138214062913533553e+00 7.735981035868176869e-01
2.553022098775291626e-01 1.684294855854070905e+00 4.710024925738646173e-01
6.312754851167763359e-01 1.839600480510660718e+00 7.780874766668882669e-01
5.378628850018176699e-01 1.281591874718737145e+00 5.593469494809740761e-01
4.927299091138811482e-01 1.038190310834527841e+00 4.345325876510697238e-01
5.735530884332138424e-01 2.178182814966409531e+00 -3.377542657223631117e-02
5.330212858656879771e-01 9.862177299454319979e-01 4.472290704506637349e-01
5.259727114151613314e-01 1.260373695704301467e+00 4.387012801432810249e-01
5.175288955944385982e-01 5.004395371787023761e-01 1.388668338746660291e-01
5.858661230793489327e-01 1.529849593933611418e+00 4.301482554937081648e-01
1.019250167666593265e-01 1.940821991109355826e+00 4.439203185726926515e-01
4.526544442815830793e-01 6.036982817738635321e-01 3.630463571785619292e-01
5.717210156923888675e-01 2.173622792361072698e+00 1.008571046262272120e+00
6.127509742518997271e-01 1.865975459025110528e+00 1.714252422868458581e-01
9.497863436895823686e-01 2.215109189320345173e+00 8.366346118421058575e-01
-7.428188140807945317e-02 2.281334565371062162e+00 7.046211549351496517e-01
4.189804357475157559e-01 6.590258982242388486e-01 4.686606870362687305e-01
4.107657245861725537e-01 1.490315095193275985e+00 4.697990348470983957e-01
6.524714971760443571e-01 5.671590606667982204e-01 7.436765559175589901e-01
4.944269266013845421e-01 5.000129181724519700e-01 1.991211768742994215e-01
2.524250153332630031e-01 5.000372883020930415e-01 7.298595256602308234e-01
-3.190529197635405545e-02 2.269693460865390477e+00 7.241872546828181934e-01
7.027162232250880880e-01 5.002589002661362860e-01 2.108155997060713327e-01
5.448805242682490668e-01 5.000129181724519700e-01 5.326768797362663177e-01
7.160001200009988853e-01 2.074006021924678755e+00 9.265777172429013886e-01
7.690538648467761806e-01 5.000912541249934451e-01 7.070510074375163656e-01
1.041444077878203034e-01 1.934137465615250129e+00 5.464666868417645818e-01
9.541518726068332068e-02 2.029298510882652451e+00 3.608571718518658322e-01
4.429653517388953965e-02 2.254935980615533353e+00 8.816796857503023110e-01
8.215930500317811802e-01 5.000347885606646336e-01 4.301773294077722021e-01
4.807074190321787288e-01 1.970763851977511028e+00 8.900883427279059346e-01
5.980750622912271997e-01 5.930374478588544829e-01 6.584255883517392549e-01
3.484091643060888144e-01 1.582191120456462707e+00 3.969503962304353761e-01
5.455414262708855322e-01 1.929596167341364854e+00 1.434584272222583223e-01
1.030141994668257288e+00 2.259917612523939745e+00 7.542836968311544821e-01
4.200249406845091293e-01 5.000129181724519700e-01 3.226435903955494622e-01
3.552027882250111679e-01 5.000129181724519700e-01 4.667077751940348351e-01
6.513524074073451242e-01 5.000129181724519700e-01 3.901980038833280373e-01
4.518517819853536954e-01 1.402173685097648281e+00 4.332407686945067837e-01
5.875634410844452482e-01 2.069851503098688816e+00 3.583576543015698501e-02
1.111167538090471751e-01 2.164664920374688606e+00 1.313127544223403609e-01
6.238272850618775678e-01 5.000088470140541252e-01 7.400106343606190906e-01
8.131151917958916453e-01 1.830848740209727765e+00 5.896302007088981556e-01
6.048223821566827141e-01 1.780387321302327797e+00 7.504467079458717604e-01
8.722156816858686046e-01 2.239277821399689117e+00 9.055018854844959497e-01
7.262014564556262819e-01 2.289241748384917230e+00 1.048775258611909678e+00
4.767430621107138222e-01 2.123306852666910771e+00 2.175867624556548918e-02
5.802601919836734012e-01 2.289176913951011194e+00 1.096020820378742933e+00
8.331049120331703861e-01 5.487456658516249863e-01 6.242989330505687162e-01
7.676119530889968789e-01 2.004494774657756828e+00 8.423854441916048819e-01
-5.516122884607133070e-02 2.192658508994213662e+00 4.685616896847798474e-01
1.029065562554095203e+00 2.214878324353965589e+00 4.478280843048996207e-01
9.516952124568260896e-01 2.039827847905216984e+00 4.821807166613303330e-01
4.898169786005343029e-01 1.875975047384727423e+00 1.727259829807100688e-01
6.165184736034472479e-01 5.811256804995516001e-01 7.018716826820009524e-01
7.072730945950658210e-01 2.133762882210815448e+00 9.714473872893846229e-01
2.993608788591741732e-01 1.767854884283446726e+00 3.254576884125363057e-01
5.973557488892864420e-01 2.118921852522721139e+00 3.524033930860703823e-02
5.146447277243999530e-01 2.280213998367561778e+00 1.105417111883378656e+00
2.272689354650325733e-02 2.284709952285402856e+00 1.621556869514312327e-01
1.376468616094380648e-01 5.279260483208293442e-01 6.769644186935176444e-01
2.857256095735606349e-01 5.000129181724519700e-01 3.584404345528544589e-01
1.670763612965200373e-01 2.219308807926623661e+00 7.337678816995896192e-02
7.805887638180484256e-01 2.137333481989543316e+00 1.049901620635937949e-01
7.861990138184056232e-01 5.631923323490273248e-01 5.875998506710177205e-01
8.885860200612603066e-01 2.161564815891800606e+00 8.599348880951899199e-01
6.108089590390577417e-01 5.000129181724519700e-01 2.794473761541267365e-01
7.259875214514610597e-01 1.716761696943146065e+00 4.816570261476771364e-01
4.968914086081466230e-01 1.476740619409794952e+00 5.705094925089558844e-01
5.675578122820144067e-01 5.621694323592376641e-01 2.035868930970704538e-01
7.441552331300627099e-01 2.232267421835214982e+00 -1.558327360616895696e-02
5.158826679208032839e-01 6.206637684686379108e-01 4.010573981311098546e-01
5.459344976088915669e-01 5.000129181724519700e-01 4.003377160777792376e-01
7.928649083519223595e-01 5.645990741054193185e-01 5.041332520455402699e-01
7.595510360862622878e-01 1.898312107915322455e+00 2.837986536708749785e-01
6.284087860331346587e-01 5.002391805932951963e-01 1.692920506679059800e-01
4.496647022170672248e-01 1.816538587835901497e+00 7.924892257301062726e-01
8.144791485982845192e-01 1.814083576584893942e+00 5.124227811219567164e-01
7.032006756549837867e-01 5.841626985011880713e-01 5.780414511021753077e-01
1.425025922354383745e-03 2.239235976875763257e+00 7.508242336658949023e-01
1.063822541115085007e+00 2.285911525314843651e+00 6.290565276843419484e-01
5.347684329209985155e-01 5.474070907540684594e-01 8.647645573333505586e-01
1.613546956776419350e-01 2.278759941551030899e+00 3.101867893392085129e-02
2.993920293959284606e-01 5.476944893257875702e-01 8.090485089694500198e-01
9.156477989664908446e-01 2.038575730355112192e+00 4.183208630782516702e-01
7.311456292872975382e-01 5.543822544822772924e-01 2.608850963357097763e-01
6.404516914449300824e-01 5.582171795573631634e-01 7.909188488133739314e-01
6.715457291693229802e-01 5.658664717184227477e-01 2.686124090167200107e-01
9.088534813494002496e-01 1.997186253100341258e+00 3.817178930064655251e-01
2.112656914919892603e-01 2.150791667807757435e+00 9.118966857178071317e-01
7.108795380331907054e-01 5.000026018917752557e-01 5.682341754375420662e-01
6.178713762804304288e-01 2.281555449157459670e+00 -8.864226439154998527e-02
6.916379540816215421e-01 2.136903832885195254e+00 2.470420886150537232e-02
9.092611615025096850e-01 2.283052290835303033e+00 9.089684918484709497e-01
8.859452331460015984e-02 2.053062323740200590e+00 2.748093809649989616e-01
5.861535584336443616e-01 5.000000000000024425e-01 6.710347826631951618e-01
5.994866072303739468e-01 6.059233388599408743e-01 4.137714604926500117e-01
-5.812490200814746100e-02 2.204300345218306312e+00 5.784557502968515896e-01
4.596429744547615437e-01 1.949298714545421474e+00 1.018145407545337777e-01
4.405787805125775947e-01 9.184431476819444606e-01 5.409501400391215631e-01
-7.371446832981631836e-03 2.144272999236447319e+00 3.620912679086084607e-01
8.262898411996009163e-01 5.000642565369606274e-01 5.776156045171082498e-01
5.381213316471369357e-01 9.916430396069167985e-01 5.539871283835650084e-01
1.911383963509265538e-01 5.000129181724519700e-01 4.420369913174323484e-01
7.368117598093797405e-01 5.359853115783478339e-01 1.942782784147628616e-01
3.650239289513870222e-01 5.000129181724519700e-01 3.361279559760929070e-01
7.080098127778344796e-02 1.986782286461559632e+00 5.349870659207270895e-01
9.218393444885089050e-01 2.185965330230997594e+00 7.980436602508048649e-01
3.300562100759718565e-01 2.148562850463726193e+00 3.404597032855416483e-02
1.908931052791327243e-01 1.841130491388383472e+00 3.580039765461637824e-01
4.764178883720827651e-01 1.260379638841680361e+00 5.712090249834204103e-01
4.401736167196753646e-01 5.866443525461847441e-01 7.074588898697516948e-01
1.312309392221338022e-01 2.258077903771679829e+00 9.680897301818346401e-01
5.365920647334854188e-01 2.157009769649794961e+00 2.572538909075716695e-03
3.588156406589045888e-01 1.650483435451398195e+00 6.770106146654014667e-01
4.494161302514514400e-01 1.097782977988833064e+00 4.506575714990319614e-01
3.316267628378999355e-01 1.812988759772806491e+00 2.279768669996692365e-01
5.609747357166627868e-01 1.013204717984240499e+00 5.160146832616866464e-01
5.223540586944506181e-01 5.922496407305356536e-01 3.143765670050863159e-01
3.316051412294990230e-01 1.696386773728199682e+00 3.552010651422873311e-01
3.877165784071306964e-01 2.137799803134865506e+00 -3.644226798121819044e-03
6.798640727746783075e-01 2.046825269312456896e+00 7.952372885101122169e-02
5.637950899363139978e-01 2.021671541719252119e+00 8.929805004189705908e-02
9.228704414526218702e-01 2.041855390032466744e+00 3.379796321468747644e-01
4.906723237243235669e-01 5.811353787789613756e-01 7.360868984752871880e-01
2.703392341599827331e-01 2.289295099765381813e+00 -4.769652883763919604e-02
1.135014724789638052e-01 5.015205848774805242e-01 4.570801890553505276e-01
6.867390742534145165e-01 5.710405809593617210e-01 6.965998881945271171e-01
6.417220687973297366e-01 1.763435330493259290e+00 2.534339800997724712e-01
1.222270219188364981e-01 1.974824003665519578e+00 3.857725716861889476e-01
4.613193366717787125e-01 1.900902875829794780e+00 1.312735374785259923e-01
8.347442423072128914e-01 2.175116340882215837e+00 9.221819072999509759e-01
8.580249401424904221e-01 1.896318846266180858e+00 4.329718043886249257e-01
8.426273024879677997e-01 5.007973355775058311e-01 6.478449863635283856e-01
1.031399989223513725e-01 1.978193621900413257e+00 4.769522411271780449e-01
2.000432792555582040e-01 1.806061701830840249e+00 6.142516787804893630e-01
3.435199708929558282e-01 5.583171133868147784e-01 2.173331072260523689e-01
2.093932835396343783e-01 2.093780122866549132e+00 1.377550920581130933e-01
5.604702063937989642e-01 8.834012791959067190e-01 5.057197797816260776e-01
6.109510140520675314e-01 1.729865080291522306e+00 7.127962917283948707e-01
5.111077891223716474e-01 2.278581084123592504e+00 -7.453863158809148626e-02
4.478299172713536835e-01 8.501929807542228934e-01 4.568551298106342529e-01
5.102240041213703670e-01 8.621863501228860249e-01 4.388088408918756622e-01
4.827459270713666539e-01 5.553774357288140395e-01 8.365321945298699324e-01
7.773539599277097256e-01 1.853429238647959387e+00 6.983063042836733514e-01
5.640842010839630660e-01 1.149011182100391437e+00 5.066944174429309777e-01
-1.109115272179149736e-01 2.287324283387103030e+00 4.966174536106529036e-01
5.425815255987642693e-01 5.000101172143665007e-01 6.914749023489107360e-01
9.412027806855081113e-01 2.171824290725601792e+00 2.545251353001294348e-01
1.806097148442487033e-01 2.000295396860694019e+00 2.039000375056944092e-01
3.607707574778671322e-01 2.071116496430851051e+00 7.375192713399525424e-02
5.095122564367056128e-01 1.957414908979424606e+00 1.231481819483808415e-01
5.605077776320952498e-01 1.318253037723864818e+00 5.316733639298071301e-01
3.389936937573329034e-01 1.598210115426500266e+00 6.112984711683800976e-01
7.802740847040652294e-01 2.090735558187033938e+00 1.404025517298386205e-01
7.171620927766955145e-01 1.747776908928129425e+00 6.193286523236737340e-01
5.839475856496698647e-01 1.653271935513076718e+00 6.738673000358760268e-01
3.754453842005426312e-01 5.388815503862706136e-01 1.332525337578491786e-01
6.036728903997525819e-01 5.939505217874135878e-01 3.548709039497289774e-01
2.833566086343247692e-01 1.666324368978723713e+00 4.100712403894578584e-01
3.151919148169083362e-01 1.901984977188410308e+00 7.980398173125219374e-01
6.663796828757253543e-01 2.105073695925983923e+00 9.692626490617847201e-01
-5.256353958604387255e-02 2.255861227936605928e+00 2.839242409647854126e-01
2.091385581996505483e-01 2.282449810037052274e+00 1.007549673266337820e+00
8.590156028090911722e-01 2.286978170372289121e+00 9.591771130781153731e-01
3.236050957878414680e-01 1.998192769597788798e+00 8.992635410699595377e-01
2.605588759521573206e-01 2.005662759533333173e+00 1.339416831995717816e-01
7.432087036209538145e-01 2.204757753705993473e+00 9.717227572106693634e-01
7.199898188319655556e-01 1.843561332788200113e+00 2.507524907881395482e-01
4.662425410975679085e-01 5.000129181724519700e-01 5.180170322843139497e-01
6.952941646392998276e-01 5.000129181724519700e-01 3.390699368164391547e-01
3.663581164788085598e-01 2.233252308178933276e+00 -3.072829004971666667e-02
9.602556976739364814e-01 2.062849759875840405e+00 4.278912305643152170e-01
3.793778953408537546e-01 1.756799087444057994e+00 7.320227722867423958e-01
4.818158068983309228e-01 5.000129181724519700e-01 7.813525515506422048e-01
6.359456283866380399e-01 2.234228039180171876e+00 -5.614985137917283264e-02
4.949371756335805284e-01 1.476608529924102520e+00 5.148525637386701659e-01
8.600059204350987141e-01 5.005688736985935972e-01 5.374422083047917242e-01
9.307813064030701078e-02 2.127015942477820332e+00 8.181223708623784896e-01
3.194561352329958748e-01 5.000129181724519700e-01 2.945543565030501743e-01
1.586687645348123787e-01 1.908982318763086106e+00 6.006204433930196762e-01
9.105504076563859517e-01 2.059386238911242728e+00 6.523126522877692457e-01
2.078571257437435982e-01 1.918955198138192264e+00 2.475780909147539122e-01
4.259021121214124905e-01 1.093461582401827226e+00 5.032781287784372504e-01
6.656026313088170276e-02 2.210825411550924713e+00 8.665756509394354490e-01
5.209593699030439229e-01 1.451137565423317177e+00 6.043708303783509317e-01
1.418597216020925922e-01 1.869862298120762434e+00 4.752098378034350645e-01
1.109254611992859241e-01 2.155408168330751550e+00 1.808518497132992620e-01
8.796155228094419964e-01 2.052605410277662745e+00 2.938387643791681159e-01
4.661995837669438147e-01 5.000089187148135661e-01 7.080732144033462516e-01
8.622269930062000931e-01 1.982603256829964300e+00 2.940352312478667907e-01
1.875909100514199235e-01 5.534709238540099774e-01 3.528150146580044666e-01
1.802165771423196450e-01 1.881165231123531623e+00 3.257207517359251847e-01
5.660931891798306470e-01 1.804529459389546675e+00 7.795405740899911118e-01
4.410679576808099744e-01 1.847947565568282657e+00 8.388032756746642837e-01
2.660499159923510604e-01 1.867640725049244610e+00 2.341934914768150078e-01
5.039844622013505138e-01 1.396793730794123389e+00 5.814919009845685993e-01
6.627196455806174669e-01 2.020619314796504362e+00 1.194303674332614085e-01
6.687537168928474607e-01 1.622270806249587416e+00 5.035050287089969379e-01
1.224225221573298494e-01 5.403693612885051012e-01 6.009390420874548555e-01
9.578410429031951612e-01 2.215511004612636725e+00 7.753535658050102475e-01
5.397461087227750642e-02 2.163652618327565946e+00 8.025633135045809885e-01
5.160333583992608997e-01 2.210754013951416574e+00 1.036729686955435881e+00
6.155505106079033339e-01 1.813447686064797226e+00 2.066757269947160358e-01
9.569744695838116044e-01 2.244669784090753240e+00 1.480743141664851992e-01
6.199322012744092891e-01 1.968324771982141952e+00 8.969268952645216286e-01
2.329916431133449706e-01 1.943299052578584041e+00 7.655669137570649818e-01
5.630146939750382273e-01 1.204814768408107417e+00 5.190117546379701130e-01
7.175405837442159207e-01 1.653642547871542412e+00 4.942330162117533066e-01
5.319740247832744906e-01 2.233867973609562796e+00 1.077316025541461997e+00
7.818502268706053471e-01 5.001192897679136440e-01 3.013468420721958640e-01
4.113501300328832322e-01 1.871940438592099909e+00 1.573037334225807493e-01
3.915318215352263653e-01 5.610604551092122083e-01 2.080414900020544078e-01
7.590313519147871002e-01 1.860228482188268417e+00 3.218637476322990798e-01
1.818231196895205848e-01 2.042929218200628227e+00 8.003994319089550169e-01
2.466307422844298269e-01 5.000419694419685479e-01 2.943865675734486098e-01
-2.137457122286767763e-02 2.143674471344598764e+00 5.736911065792494879e-01
3.143024005501802165e-01 5.243197045284300195e-01 1.472007895557404522e-01
1.947897529156694674e-02 2.153427537341715770e+00 2.748790717808347051e-01
4.718060016490424058e-01 5.000129181724519700e-01 3.086419401291546905e-01
4.087749794489959898e-01 1.440989021175675067e+00 5.534711606047878485e-01
9.521046398661925370e-01 2.217381041808978104e+00 2.179892019242980483e-01
5.513476541932047503e-01 1.811910543194080292e+00 1.889499732512217589e-01
1.737943606729231982e-01 5.191623448590965140e-01 7.399914765953884421e-01
2.537831894732185400e-01 2.212143767151376839e+00 1.011167986334775559e+00
2.904239539777445644e-01 1.752600885539471465e+00 6.979714731095497671e-01
5.080760378555451151e-01 1.379463021553766655e+00 4.283512838823549940e-01
8.622738331468811079e-01 1.942885434281817147e+00 4.541668133630090143e-01
2.708310447260638965e-01 1.758885876678873084e+00 6.310208733638117407e-01
3.807856921545331730e-01 5.875788976301365985e-01 6.770553952487950999e-01
5.458218774975449605e-01 5.002308306951551709e-01 8.529752506381270694e-01
1.954183953691095432e-01 2.037793001786673663e+00 8.469048061830032337e-01
2.173290164543741909e-01 5.000129181724519700e-01 3.770879652776987223e-01
6.201503281896696418e-01 6.071697706011152107e-01 5.461421474322561975e-01
6.569492172963888876e-01 1.618563445169405979e+00 6.228552422258563093e-01
5.257807616569238895e-01 5.000129181724519700e-01 4.813393192731219017e-01
8.295754729910747027e-01 2.229677838048118588e+00 9.340952117568966928e-01
3.295178420542810294e-02 2.085441176235246274e+00 6.520932440720289547e-01
7.491371530817507729e-01 2.289205239621536769e+00 -4.015996998241699867e-02
6.183892592311235337e-01 5.000129181724519700e-01 2.272660150383162270e-01
3.171661547112845092e-01 1.696569648952869214e+00 6.322415541931017957e-01
7.485251570266220345e-01 1.914212026888522322e+00 7.864199696644332827e-01
2.671432307853299770e-01 5.000129181724519700e-01 6.414517343015001538e-01
5.459158925806975038e-01 1.615172958307758977e+00 6.958397596436908250e-01
4.403875606808321796e-01 1.211461153117865397e+00 4.576838667065245003e-01
7.161413666137164125e-01 5.000129181724519700e-01 6.968993334424943287e-01
6.504692589644045508e-01 1.891732772788695227e+00 2.009050478929005346e-01
8.151163524246998193e-01 5.389807115929232673e-01 2.839976266618556844e-01
4.044317694299680577e-01 5.000129181724519700e-01 3.868799697989419029e-01
5.552830929844885244e-01 2.250372685251208260e+00 -5.327901249546840301e-02
5.805895493053436773e-02 2.113906036982676540e+00 3.145626334301677707e-01
2.970156321007364486e-01 2.122997143788897034e+00 9.708066132693305983e-01
6.951077869376567353e-01 5.541779794545600435e-01 7.757761584953924983e-01
7.410931163008147582e-01 1.811501752679023136e+00 6.560814239553035554e-01
4.607610389138376839e-01 5.000129181724519700e-01 5.976944731312375803e-01
5.661880325244554868e-01 1.833612262332515730e+00 8.265403174097517569e-01
4.259528072040195124e-01 1.639871700645861852e+00 6.742416692232441333e-01
4.165676703776666212e-01 5.486270807325734911e-01 8.540471769599281560e-01
4.863173647860631332e-01 1.719336635863415230e+00 2.688365623867868814e-01
1.586026975740448819e-01 5.503929638321168882e-01 3.930622460805566210e-01
7.968367482088796194e-01 2.267825987928035580e+00 -1.163214669707712812e-02
5.962485994850561521e-01 1.901931384391380098e+00 1.432377198840421029e-01
5.635537852225485089e-01 5.000129181724519700e-01 2.508460629271963560e-01
4.877874896255973702e-01 5.162776510887968628e-01 1.034696122631221238e-01
5.871896331759984822e-01 1.427157577825691970e+00 4.949707852307883016e-01
4.504164948786174572e-01 8.574390125967182863e-01 5.508230358475306732e-01
3.215911808506544123e-01 1.627919332664141683e+00 4.627860804945143069e-01
3.216988364369033349e-02 2.262416309780524770e+00 8.300240393017516149e-01
9.252345053093822269e-01 2.169912003849881366e+00 1.816053034646653019e-01
5.775008193033772663e-01 6.307807821346489430e-01 4.527704338003150086e-01
1.282615993919977715e-01 2.032336317680218940e+00 7.187987376497454450e-01
1.918331676605822267e-01 1.858937084870136092e+00 6.723815697340621567e-01
5.619213154705895441e-01 1.991477060986715841e+00 8.973381968515278251e-01
5.599588728618356548e-01 6.727531689241610380e-01 5.391911526369058683e-01
8.494595586780488983e-01 2.055682791179060054e+00 8.064402624048200297e-01
1.481547235575051413e-01 2.164997401677486000e+00 9.087851272653232337e-01
6.265705204419982355e-01 1.615222620084851179e+00 3.521329720152348575e-01
8.836564065417924496e-01 2.223303167411745829e+00 8.645130150821334070e-02
8.952346713338561468e-01 2.094895015502488356e+00 7.361557655676188583e-01
7.573616268139022889e-01 5.533604476719946597e-01 7.216033553450881266e-01
2.144232273965724911e-01 5.660682555211598022e-01 4.188621789444486598e-01
6.821537336221101810e-01 1.790439826780989341e+00 2.979944655850635948e-01
6.850287715412832767e-01 1.834627189260509050e+00 7.750646027379127778e-01
-4.837737293383692627e-02 2.262669654313764767e+00 6.651308916320745057e-01
4.369744675397311262e-01 6.194528138076794699e-01 4.149444187680513263e-01
4.325427521269362696e-01 8.038667589300809713e-01 5.208286673401446576e-01
6.579441832755601460e-01 5.000071022012335664e-01 5.967950330205992193e-01
9.710854684919540958e-01 2.267403984550638185e+00 1.898327534415599205e-01
-2.289574411839201407e-02 2.207222464522711203e+00 2.892007139149110895e-01
1.666644572828157589e-02 2.125084424479669387e+00 4.391711623668034248e-01
6.147075383383147074e-01 1.483521089109829383e+00 4.752446814374838846e-01
6.439005767038674666e-01 1.673200912650951944e+00 6.837710100249912992e-01
3.294734187115107016e-01 5.906750224258121573e-01 3.964484942554494795e-01
6.068611208428051906e-01 5.658936975894330867e-01 2.316741570443249243e-01
8.285059637399803112e-01 1.916807959130681027e+00 6.890925563306685708e-01
2.537844722660911323e-01 5.144947278480824782e-01 8.204639249299231496e-01
7.731267413035807223e-01 5.000129181724519700e-01 3.825559356276241330e-01
3.900887901500550425e-01 1.819544483444327510e+00 8.084015181873570599e-01
6.093925186388999826e-01 5.380287995120111022e-01 8.744861142814087662e-01
3.717580849604299464e-01 5.541965795674073103e-01 8.182654767403331197e-01
8.239927834205722501e-01 2.005699062973007596e+00 7.454052273530801243e-01
8.033467001501817251e-01 5.476573090615857176e-01 6.946056099866150246e-01
3.267675450413373150e-01 2.207302100003373013e+00 -2.858982570689061475e-03
6.848951268393619340e-01 1.857158178536114201e+00 2.133375448815638675e-01
1.943434257097147455e-01 5.628188248815249040e-01 5.565826980081575170e-01
8.812276588163747704e-04 2.233705734318567337e+00 2.060662409650055871e-01
5.996488622776112720e-01 1.735114483150806519e+00 2.827850377848025731e-01
4.959322421440111039e-01 2.077647720247751018e+00 9.557086413768630662e-01
6.208391356688280904e-01 2.224578712721405616e+00 1.058772337066396396e+00
2.236914967278067490e-01 5.584016146497270405e-01 6.772335856934189602e-01
1.491109221219839576e-01 5.004916659236322563e-01 6.259975423993241472e-01
5.155716582866789466e-01 1.087837925592550103e+00 4.370839066261031913e-01
5.378443157240331285e-01 5.503315196296629797e-01 1.514686120751022047e-01
5.134003839752669940e-01 8.113608606688783587e-01 5.646315370568778524e-01
7.373151703617075725e-03 2.224927308244884827e+00 7.993328574641204165e-01
9.889260762112752623e-01 2.113764680927746831e+00 5.939553222088226336e-01
5.647377344938711019e-01 1.711271885759842792e+00 7.505220395562514080e-01
8.956207293148574777e-01 2.029111439889859536e+00 7.088315033962643286e-01
1.729219798104286721e-01 2.165890313772526721e+00 1.104622481269509349e-01
4.412915254588418712e-01 5.629768193617200600e-01 2.026876851391037349e-01
3.409061313458041642e-01 2.288094095622218660e+00 1.087473597816862370e+00
6.839294687675816498e-01 1.962497803613144853e+00 8.665273051652907510e-01
1.013590882053835074e+00 2.241344256468898344e+00 6.950507502064234844e-01
1.373903472939775883e-01 2.084560127250859374e+00 8.302106917634776151e-01
2.980434046550773930e-01 1.659100631191044117e+00 5.108635215451956535e-01
4.245088384740897114e-01 5.676691144488196228e-01 7.800107609551153454e-01
-8.991454327535153279e-02 2.289017818817997263e+00 6.428170497630946167e-01
2.637687457613111519e-01 2.071794798957757422e+00 1.167067673059350996e-01
9.810707329183872005e-01 2.276075818782546278e+00 8.555452308650101090e-01
5.346040990483649225e-01 1.853171589471417802e+00 1.611329023933946170e-01
2.522943705778017964e-01 2.015726597939727860e+00 8.397737064504594562e-01
4.127673946457270926e-01 1.595553976282031439e+00 3.679115865819195808e-01
6.939444332090349832e-02 2.049220730298446647e+00 3.189502011897278333e-01
7.278882043159202730e-01 1.758579766401995315e+00 3.364345146956021493e-01
5.580950945408060804e-01 1.476669811609596650e+00 5.081750986387844060e-01
7.234480353641363770e-01 5.688359894254959581e-01 3.382217610727387136e-01
3.992397004500924940e-01 1.849265351450831041e+00 2.039114831296993113e-01
8.440150560151375991e-01 2.106227811076055723e+00 8.179349713072637806e-01
5.051365899077702171e-01 1.811496923977320428e+00 7.926742439490513936e-01
6.122739366562435226e-02 2.063803459484691238e+00 6.020489814033403997e-01
9.960821747995454167e-01 2.187247660708476094e+00 3.637930706582738205e-01
-3.526625948423878221e-02 2.185122031255810171e+00 3.697803297786879106e-01
3.705202348109511989e-01 5.753949600680112741e-01 2.786266016174534510e-01
9.114285538664355091e-01 2.217387157391536689e+00 1.611133384880508723e-01
2.929899537602314030e-01 5.751519169205183690e-01 3.432879012883875980e-01
4.312708622510738055e-01 1.913794993296247027e+00 8.497511783018633080e-01
3.508400981426955667e-01 5.268570227998143896e-01 8.734446865859831766e-01
4.607333863489678771e-01 1.535049746662685122e+00 3.536892937831759287e-01
9.344289692931624369e-01 2.102571570044863059e+00 3.411957157456241285e-01
5.450464187445343001e-01 1.421992649138049236e+00 4.275956816389279158e-01
1.047971789007904997e+00 2.222268194013067077e+00 3.699770536027450207e-01
4.688939010789212603e-01 1.106822809980338107e+00 5.664700495600761831e-01
6.626486852234070302e-01 2.288096946668187748e+00 1.083543091143777559e+00
5.494937616455435325e-01 1.610778888370788753e+00 3.128970198300579098e-01
1.996969327169252351e-01 1.781461225209968413e+00 5.581891940154420917e-01
9.055330028041888024e-01 2.277401206162419811e+00 9.813298110753454484e-02
5.300224142603779942e-01 1.055218067532294857e+00 5.608857395553931147e-01
3.582813759295238043e-01 2.040575692116514794e+00 9.108705791722414569e-01
6.600604327080406009e-02 1.999649314055522709e+00 4.417482567422913453e-01
4.329394460535127553e-01 1.170533643181783878e+00 5.351697286360187489e-01
8.493903085004552711e-01 1.874572805390605446e+00 5.402407661353268997e-01
2.381044003308421253e-01 1.757114855092623884e+00 5.177679260766142599e-01
1.012267216268075032e+00 2.198828865508025920e+00 6.033605406652108316e-01
4.317703787724943565e-01 1.289888657105308312e+00 4.685212920203233322e-01
6.087510989996671729e-01 1.568339664317624393e+00 6.315136524835854859e-01
2.179582223450131639e-01 2.041280971120757570e+00 1.371119486100976781e-01
7.701158546619712997e-01 1.789466449577614471e+00 4.745775474025771823e-01
6.330456468924627877e-01 1.969527433775543068e+00 1.117172913220235708e-01
4.454910388606453386e-01 2.045307567330966858e+00 4.433367322907300068e-02
2.250058619219155176e-01 2.267295664355489571e+00 -2.906892428486873570e-02
3.855539956751556918e-01 1.871987861573022993e+00 8.111981551746810792e-01
4.286204765247048076e-01 1.025385901110082321e+00 4.870679261750153755e-01
5.485196972542150107e-01 5.665008929637821433e-01 7.882559570679322780e-01
8.310817079611119151e-01 1.845884929113226436e+00 4.585074886441998787e-01
3.234017070609749300e-01 5.667131117576856836e-01 2.685586831500657023e-01
6.157797235948250236e-01 1.519820460537993245e+00 5.801234518053474121e-01
7.820892800282062129e-01 1.962065447653176475e+00 2.101121598906244836e-01
-9.093584182080260980e-02 2.288890760831030491e+00 5.720285942841990545e-01
2.568517805691186151e-01 1.779646209558941594e+00 3.729207874107981491e-01
8.419653515561760226e-01 1.965491984196591213e+00 7.243825657732293477e-01
7.717533809184000670e-01 5.000129181724519700e-01 6.222419395029622491e-01
6.220891494277913658e-01 1.946526736298099802e+00 8.530796679295121754e-01
7.263101980369035537e-01 5.798562141021458283e-01 4.452903916619448399e-01
4.950401805277864220e-01 7.508957725635019287e-01 4.384229125186186460e-01
3.891004264231539000e-01 1.777079359750151744e+00 2.548181543383881698e-01
6.974822449751849618e-01 5.889379578062846621e-01 4.917141966143644405e-01
2.973003218430397832e-01 5.000129181724519700e-01 4.891393874902769667e-01
3.504161707250708080e-01 1.727931394817532107e+00 2.769088066673960347e-01
7.700538019780112098e-01 5.675357394454876303e-01 4.226470749575800268e-01
6.512135577349209559e-01 5.878301728544551574e-01 6.386118975649436313e-01
5.455442028197801108e-01 5.000129181724519700e-01 1.964174857487827053e-01
1.300411032123200972e-01 2.251585568473173815e+00 7.766964986151803085e-02
5.902310354978901330e-01 2.053840632801623656e+00 9.306292929771825539e-01
4.981428530516635034e-01 5.613792147935043886e-01 1.917674705758368736e-01
7.336343427614380186e-01 5.000078466712407632e-01 5.203101160739588282e-01
3.528614138898716890e-01 1.892044150925247248e+00 8.413983155393932600e-01
8.823357678698622308e-01 1.925931066932537350e+00 5.183116883844206546e-01
1.005309640117341363e+00 2.172932032278362069e+00 4.736551295803523853e-01
4.286381511325686455e-01 1.395391323790820426e+00 5.460199849533456939e-01
3.832435527092520333e-01 5.000129181724519700e-01 7.703377661839961865e-01
9.981329301344552540e-01 2.220619627539987206e+00 3.053152975779068745e-01
4.227987290493444572e-01 1.666894929405515535e+00 3.141567766197823630e-01
2.135217656593569879e-01 1.898061895569340685e+00 7.446343893953010218e-01
3.615088150073207940e-01 2.205024193681337064e+00 1.044853029284891655e+00
1.759855651634867346e-01 1.896200478808375278e+00 3.778143114413506920e-01
7.575715723278400038e-01 5.431349781313515868e-01 7.745224587909115277e-01
6.862932905951146800e-01 5.000129181724519700e-01 4.790406811076178828e-01
5.553789887801927616e-01 1.739948351319941633e+00 2.636184286885502326e-01
7.684651404905762373e-01 1.947897850691548305e+00 7.570449906181738742e-01
6.555548690680312873e-01 5.000129181724519700e-01 5.376337037676740538e-01
4.774114981188198881e-01 1.170153939801783727e+00 4.348528482196548639e-01
3.786688201052869074e-01 6.116333749179372337e-01 4.770024852574095142e-01
7.610378091564171665e-01 2.079453522507542118e+00 9.038579195573547276e-01
1.642578100255611684e-01 2.110478079119713080e+00 8.786289842299482844e-01
2.732568861751158984e-01 2.043746936786496882e+00 9.055649600331542315e-01
5.107779664603124825e-01 1.174121172162683635e+00 5.705177217983715687e-01
-5.671209547660460704e-02 2.279791137302852100e+00 3.288581911549411929e-01
3.748948913098879565e-01 1.540507828174611404e+00 4.736803397561578644e-01
5.842761074370201868e-01 5.011258703875581810e-01 1.334148404532909948e-01
2.677525730851981756e-01 2.171636555549296688e+00 4.503671336261305669e-02
5.371608228589295209e-01 6.633078171537128975e-01 4.341454977441051577e-01
4.127773240679351030e-01 5.000129181724519700e-01 4.849286696050661982e-01
2.428812773572609496e-01 5.537313717589766870e-01 7.319351154021930261e-01
2.738325039591116283e-01 1.966962468845264711e+00 8.515486517114060350e-01
1.068336208416296174e+00 2.240989207095481106e+00 4.148287379601164337e-01
4.944963749908863893e-01 5.000129181724519700e-01 6.413980740074721743e-01
2.438053328275435749e-01 1.846680435151109689e+00 2.733715270887945303e-01
5.237308562648343990e-01 1.913599185827462357e+00 8.541682271744069910e-01
2.253154404712560677e-01 1.962258590435621786e+00 2.307510667493614109e-01
9.767761733485207376e-01 2.125192814418860543e+00 4.898223978982049198e-01
4.716142642869372015e-01 6.597465914218065830e-01 5.817454328649650508e-01
1.409061329201174440e-01 2.017814301377403474e+00 2.341711012936601444e-01
1.064534523399550014e+00 2.223969712133249566e+00 4.886751211873306966e-01
3.763267153440776891e-01 5.000129181724519700e-01 5.474954889689841453e-01
3.062200445785433489e-01 5.907396495257405400e-01 5.566063195111866646e-01
5.717761488230155287e-01 1.949360512853467897e+00 1.076879651087186973e-01
3.726578908949096380e-01 5.938604718676012695e-01 3.649661213295014583e-01
8.102117786221703089e-01 2.028606861004248696e+00 8.242123407068505658e-01
1.092874472339110170e+00 2.271042056819378985e+00 5.059398342572333229e-01
3.285739756988244054e-01 5.000403027468740547e-01 2.206327408658633749e-01
7.999527561863490899e-01 1.844206763171215124e+00 6.482220019110905840e-01
1.081061982044976499e+00 2.289332495871999384e+00 3.938535024123503980e-01
1.026849859478401461e+00 2.289299212304857001e+00 2.376779741740846497e-01
3.432623171367199522e-01 1.542357265544077372e+00 5.438339918871576417e-01
2.263236497417312476e-01 2.076090595994145804e+00 8.665484846866268187e-01
8.801212159149462977e-01 5.376773155266652005e-01 4.446302853382376741e-01
-4.550485326582831558e-02 2.239553926764639158e+00 3.870319285726407932e-01
3.246038485284963304e-01 1.564979542515368305e+00 4.950188310657208657e-01
4.143303947505500018e-01 5.000129181724519700e-01 6.644192331517423389e-01
7.276191728601479891e-01 5.808878816735018047e-01 5.300971085000359961e-01
5.510616484761290401e-01 7.423133519162552485e-01 4.722471551783837818e-01
9.071268766842814912e-01 2.012159883611052358e+00 4.787380438671958727e-01
6.043817497423966678e-01 5.000129181724519700e-01 3.455485147536979662e-01
6.495091322490951224e-01 2.114826277370639218e+00 5.250630890932839190e-02
4.254789483995332633e-01 2.168374775858972647e+00 1.006447939840051209e+00
4.396686979534291106e-01 1.294566248215270665e+00 5.482975639396147072e-01
1.706802696451725776e-01 1.853628777045457365e+00 6.181493667546388293e-01
7.787491172988831867e-01 1.819438017798384655e+00 3.483562481024616853e-01
3.532991040781128245e-01 2.288833150500104274e+00 -6.953803039226369442e-02
8.215188546795417768e-01 2.007705498224717999e+00 2.543031456049850147e-01
6.817347114973546507e-01 5.003012661686756513e-01 8.103177051903015515e-01
5.461266458333324803e-01 2.046041267607108693e+00 9.608983529070364016e-01
2.167570874186801611e-01 2.223676818063907490e+00 9.685391402624127233e-01
8.798100520034290994e-02 1.992030565200520131e+00 6.369254075123290670e-01
4.470657617927674687e-01 2.167694225117241302e+00 -3.098087382195102713e-02
2.986504617017954333e-01 2.289298397602037127e+00 1.063635077610640689e+00
7.002670907469350503e-01 1.778246388637578557e+00 6.774988899839652357e-01
7.256558568180389024e-01 1.965388481311720836e+00 8.099474541284626961e-01
8.444141979169419443e-01 1.889141606820188724e+00 6.090442441063960155e-01
6.654698028835652757e-01 5.456209629252304349e-01 8.314645126376597473e-01
8.629383378010782035e-01 1.945291285563778061e+00 6.581198417287114077e-01
1.647564638696769057e-01 1.877122117060084472e+00 5.227201922554275404e-01
1.030041789715985923e+00 2.252822462139535631e+00 3.361775913789920578e-01
9.873326491544136552e-01 2.240038790959550496e+00 8.081076689868919027e-01
4.844210995331643677e-01 6.159775166679553049e-01 6.115276937380128564e-01
6.469292788326972410e-01 2.027867429041485536e+00 9.261792571398724805e-01
8.159272864773627898e-01 2.288825834275454163e+00 1.011963385685660466e+00
5.198874255976253522e-01 1.847360270859474074e+00 8.417759019108060903e-01
1.492987395254589122e-01 1.910565854826954846e+00 4.399061668851527163e-01
9.345321900798175818e-03 2.103586488269636234e+00 6.068985102168099610e-01
9.465902377654449307e-01 2.279951846687321648e+00 1.333117884337667869e-01
5.260400767809014777e-01 1.217417776452270894e+00 5.652101383323907546e-01
-1.985752393274997640e-02 2.144935264056674118e+00 5.037783556304554766e-01
6.476100714270458525e-01 5.781260764301964228e-01 5.476683918044450428e-01
6.482866998152534421e-01 5.387440047495275497e-01 5.284790680191501222e-01
4.178393349350495445e-01 5.024032342335865708e-01 2.576706335206051524e-01
5.068838632743557504e-01 1.122741782618905448e+00 4.472371400785313256e-01
1.064486406088628767e+00 2.268308125313507340e+00 6.145603391681614402e-01
6.232969200267710619e-01 5.241050071812166644e-01 5.569729677024483072e-01
9.645633787117751101e-01 2.175001144746253612e+00 2.758586484520973992e-01
7.341062015972292798e-01 1.858725042257307170e+00 7.253822889875986002e-01
2.688728895543218700e-01 5.332277642319716016e-01 4.425146947736604552e-01
6.367031046753894863e-01 2.208085540843509165e+00 1.019858432892371436e+00
7.355612284092363229e-01 2.266957852084511060e+00 -3.665167582526407397e-02
2.621163760908198359e-01 1.708168538515940194e+00 6.089394466170515718e-01
5.239768346436195490e-01 1.973208329379217085e+00 9.073510663698322043e-01
5.997727306908426925e-01 5.285945830596063821e-01 1.214693276358185248e-01
6.846991401713300451e-01 1.874746331752484618e+00 7.972148666505211034e-01
3.952657263268166687e-02 2.078640497981343760e+00 4.982360412311895859e-01
-2.197027074690038884e-02 2.251860673060000373e+00 2.378347028096611249e-01
6.586680667616187090e-01 5.338940566502229368e-01 4.169074973194087930e-01
4.912175945929929677e-01 1.992029617455502999e+00 7.574672964179229862e-02
1.128429601432772156e-01 1.976000141236672780e+00 5.998721746795948606e-01
4.657028439262761443e-01 6.338340726876819931e-01 4.506359155925114823e-01
3.992872963650665463e-01 5.281041146751163096e-01 6.304452411084712216e-01
7.087916714976085775e-01 5.216706169773943635e-01 8.059788341249031207e-01
4.802240007336582295e-01 1.022592802999836126e+00 5.687339787843003203e-01
8.690336293708746940e-01 2.014637264310914500e+00 2.871652129004522713e-01
2.271163654939858390e-01 5.464535386748642365e-01 7.344613715501818740e-01
4.937868451499225486e-01 5.271852585001002289e-01 7.345231015662520013e-01
6.417282838549298596e-01 1.820773206332059191e+00 2.164762475134548447e-01
6.524846133300352680e-01 1.607885273854148478e+00 4.481567981521551447e-01
8.349930496861612816e-02 1.999547580826626536e+00 5.288133422669131223e-01
4.245465576941547248e-01 1.836960148836851880e+00 8.222204398297575656e-01
5.292827893426472752e-01 9.302956157622874755e-01 4.576885321599726275e-01
4.905278773253058944e-01 6.629998375081076478e-01 4.566134945143426327e-01
8.702354622117922656e-01 2.123765274925554003e+00 2.013654806576901102e-01
4.499898185415641683e-01 1.935981131495364993e+00 1.274341905901962280e-01
7.705025263608324959e-01 1.826639769902454136e+00 3.619320538869876813e-01
6.108061177397923203e-01 1.661671516152545047e+00 6.973577204719757505e-01
6.689849322222236605e-01 5.910811901568210347e-01 4.509516994675534240e-01
9.563533174510665535e-01 2.124087621331732123e+00 6.479189437855029654e-01
6.192652666229829794e-01 1.613251801660887219e+00 6.573557859729509678e-01
2.449491221953321585e-01 1.772641789997434048e+00 6.386370369421495718e-01
2.197185587434115073e-01 1.958408198486497387e+00 7.840655608173551228e-01
5.169021532496800297e-01 8.373939488134549691e-01 5.557990911035063375e-01
5.977404869036471169e-01 5.769486505606339355e-01 4.637105218481237801e-01
6.313136974467175033e-01 5.393315365832265229e-01 8.307229405238972797e-01
4.313531348291872458e-01 5.844995452287985449e-01 3.332942697711932523e-01
8.300366026626662119e-01 1.842932680186311289e+00 4.910583278508838800e-01
7.652250250183978419e-01 5.144047744350513929e-01 7.627791569232628133e-01
8.266771453470378450e-01 2.191475303023409538e+00 8.222635786310494854e-02
5.158335444408232995e-01 6.741020594101742036e-01 5.414176712580590634e-01
6.643292932465294509e-01 5.677686958454206678e-01 4.658848847059783305e-01
4.986534260401044305e-01 1.286800428600472834e+00 5.396758064050858339e-01
7.705643970777202867e-01 5.379455940958640658e-01 5.510637940590025208e-01
2.906076289546348779e-01 5.037351455405094658e-01 5.611084011567780694e-01
4.282917939926310646e-01 5.015624880141258402e-01 2.850862752260910904e-01
4.596139041486555499e-01 1.818391220404497632e+00 1.838569287278585263e-01
4.654275857838932051e-01 2.150305838518094426e+00 2.533695413504788441e-03
5.590422136180233093e-01 5.458690489426091252e-01 1.851479169183609663e-01
7.884256382335468327e-01 1.964290722965470914e+00 2.169920198633610298e-01
7.780411904366548725e-01 1.782067739311655519e+00 5.670183504235707384e-01
5.588794672581234302e-01 5.561643276352103982e-01 4.190185026829962300e-01
8.471415965554653926e-01 2.064894041531744051e+00 8.172269967446040839e-01
3.501977639219788774e-01 5.056251787660197561e-01 1.863987269266101920e-01
8.253369190432815472e-01 2.080714187409736127e+00 8.433417510084334490e-01
9.237057341580390268e-01 2.120095269851198339e+00 2.361342251481072241e-01
4.084378258332380662e-01 5.181833025379034563e-01 4.862238222070059956e-01
-2.147123904215531009e-02 2.150527936656795092e+00 4.392865148765775496e-01
2.278072544444752490e-01 5.364143010165952630e-01 3.070000611908343391e-01
3.848808968215129411e-01 2.111869372698260250e+00 9.707356214210124401e-01
8.644372771746751116e-01 2.024936272727580366e+00 2.591948834179587102e-01
6.947063086946116961e-01 5.208657495517106106e-01 5.568392602153767745e-01
