0.003448 0.190454 0.093960 
0.016993 0.254537 -0.141724 
0.066107 0.238702 -0.104407 
-0.051480 0.174381 -0.066589 
0.172656 0.305494 -0.020391 
-0.141664 0.338847 -0.132897 
0.013713 0.114481 0.056523 
-0.139218 0.276302 0.045832 
-0.002693 -0.135736 0.022332 
0.045825 -0.251882 0.024491 
-0.135756 0.281963 0.083679 
-0.171406 0.317876 -0.014087 
0.164436 0.313199 -0.039534 
0.194821 0.354969 0.001132 
0.073021 0.159291 0.016687 
-0.106158 0.325586 -0.152901 
-0.143845 0.304909 -0.078875 
-0.023097 -0.072673 -0.003542 
-0.131511 0.295497 0.104133 
-0.061885 0.239494 0.107514 
-0.111495 0.239470 -0.054346 
0.091876 -0.251879 0.028338 
0.018501 0.114264 0.043279 
0.054538 0.144162 -0.052676 
0.051932 0.348435 -0.193212 
-0.006601 -0.202268 0.030474 
0.068654 -0.251838 0.100208 
-0.077542 0.360852 -0.182889 
0.180577 0.347258 0.059150 
0.165932 0.360635 0.124214 
-0.111029 0.285210 0.117235 
-0.059435 0.132125 0.034301 
-0.128904 -0.245628 -0.048307 
0.088660 0.272333 -0.125433 
-0.114916 -0.234909 0.045068 
-0.058894 0.154869 -0.041737 
0.166689 0.338893 0.079929 
-0.094840 -0.251868 0.066917 
-0.080819 0.265490 -0.125678 
-0.078827 0.149893 -0.008308 
0.136303 0.291152 0.093145 
0.086744 0.244319 -0.092761 
-0.087766 0.355279 0.174168 
0.054777 0.296976 0.159501 
-0.127852 -0.251654 -0.007117 
-0.043496 -0.233275 0.108798 
0.083674 0.203297 -0.058150 
-0.126122 0.311575 0.111176 
0.079982 0.289832 0.132585 
0.079655 0.173971 0.026409 
-0.104945 0.222276 -0.064314 
0.121490 0.239103 0.023893 
-0.179818 0.338119 0.040807 
0.124872 0.248585 0.061300 
-0.042146 0.338812 -0.179940 
0.156825 0.354403 0.129940 
-0.184194 0.361611 0.096223 
0.109744 -0.251879 -0.003198 
0.105427 0.236897 0.062303 
0.024322 0.180018 0.094348 
-0.106581 0.285640 0.108752 
0.126319 -0.251674 0.018564 
-0.136716 0.314225 -0.100624 
0.157061 0.350106 -0.110064 
0.032132 0.305071 -0.170594 
-0.068209 0.217328 0.098822 
0.086031 0.221186 0.073028 
0.027837 -0.251879 0.068042 
-0.166140 0.358692 0.106230 
0.033470 0.293743 -0.153622 
0.049904 -0.226528 -0.075885 
0.074406 0.300045 0.153433 
-0.199239 0.363434 0.062065 
0.018548 0.229776 -0.116639 
-0.083741 0.187542 0.058225 
-0.002724 -0.251879 0.062298 
-0.099645 0.328935 -0.148410 
-0.055166 0.219791 0.108339 
0.019285 0.213428 0.116117 
0.160479 0.321548 -0.067844 
-0.025939 0.169141 0.087081 
0.101200 -0.246170 0.093299 
0.053575 -0.230812 -0.093270 
0.062577 0.278593 0.144446 
0.058570 0.345897 -0.179872 
0.106847 -0.240965 0.084794 
-0.136290 0.302288 0.088402 
-0.046596 0.358468 -0.200722 
-0.163981 0.362114 0.113641 
0.128077 0.249030 -0.021605 
0.132146 0.297135 0.104937 
-0.128632 0.310319 0.121306 
-0.074253 -0.222561 0.012691 
-0.021323 -0.015212 -0.011364 
0.103948 0.242667 0.071192 
0.028061 0.365213 0.203054 
-0.129314 -0.236766 0.011120 
-0.178310 0.312827 0.003362 
0.049715 0.253003 -0.132800 
0.046990 0.289184 -0.157011 
-0.066579 0.210851 0.095165 
-0.004957 -0.235271 -0.124654 
0.092025 0.308251 0.149482 
-0.176460 0.321202 -0.050181 
0.034049 0.278969 0.153931 
0.113408 0.222593 -0.008347 
0.093934 0.174258 -0.002108 
0.073570 0.237042 0.098012 
-0.034507 0.255938 -0.129592 
-0.018078 0.086323 -0.037789 
0.001592 0.339619 0.185299 
0.125526 0.228215 -0.017167 
0.104352 0.269838 0.097201 
0.046194 -0.251879 -0.097090 
-0.121874 -0.235409 0.028889 
0.029142 0.327433 0.175428 
-0.113348 0.222105 -0.003752 
0.041192 -0.231153 -0.100806 
-0.082895 0.340431 -0.176738 
0.059611 0.256639 0.120611 
-0.104929 0.362528 -0.170060 
-0.126170 0.243869 -0.011897 
-0.035933 0.139432 0.063530 
-0.091788 0.359073 -0.174820 
0.151276 0.285485 -0.016517 
0.180974 0.318477 0.017262 
0.064932 -0.220515 -0.017812 
-0.073584 0.336257 -0.167821 
0.024469 0.145152 0.072395 
-0.061159 -0.222710 -0.044977 
0.047998 0.314647 -0.163092 
-0.166115 0.319432 0.048073 
0.068668 -0.251882 0.055402 
-0.177199 0.313593 -0.023911 
-0.010082 0.047279 -0.023432 
0.061951 0.143624 0.043157 
0.162073 0.286552 -0.008306 
-0.060812 0.358290 0.196780 
0.173612 0.328739 -0.042053 
0.032765 0.137969 -0.064231 
-0.154208 0.307375 -0.082758 
0.148523 0.296846 0.079737 
-0.197462 0.364553 -0.067999 
0.012335 0.268168 0.150551 
0.018904 -0.066026 0.013885 
-0.042131 0.354399 -0.189850 
0.112995 0.355330 -0.158997 
0.140624 0.251087 -0.001508 
-0.056156 -0.217663 -0.001969 
0.040896 0.105005 -0.005340 
0.175919 0.328086 -0.028605 
-0.021427 -0.111444 -0.007886 
-0.061152 0.146353 -0.027234 
0.017806 -0.251879 -0.021742 
-0.104357 0.211151 0.022257 
0.142867 0.290222 -0.060307 
-0.012462 -0.251879 0.094634 
0.085029 0.284872 -0.137013 
0.097718 0.296061 -0.124986 
-0.043803 0.173272 -0.082447 
-0.035059 0.097204 0.032915 
-0.090987 0.185513 0.001287 
0.057696 0.301827 0.161631 
0.042911 0.349548 0.196107 
0.151502 0.319794 0.101937 
0.037492 0.154341 -0.072853 
-0.175870 0.320339 0.050322 
-0.092202 -0.251879 0.028759 
-0.070311 0.298729 0.144028 
-0.060334 0.200069 0.091491 
-0.072406 0.166847 -0.032925 
0.057396 -0.218698 -0.018262 
0.042443 -0.251879 -0.072324 
0.040290 0.132526 -0.042292 
-0.110310 0.343790 -0.163537 
-0.028611 0.222039 0.119565 
0.088873 0.191147 0.031985 
0.189945 0.354754 -0.042760 
-0.039956 0.221201 0.115726 
-0.022022 -0.099737 -0.006615 
0.116689 -0.251854 0.018013 
0.095449 -0.233310 -0.068197 
-0.186913 0.352694 -0.049606 
-0.088724 -0.231928 0.068231 
-0.046733 0.166419 -0.064041 
0.054975 0.202557 0.096547 
-0.092389 0.302117 0.133491 
0.150146 0.347442 0.116646 
0.147618 0.279646 -0.017107 
0.027533 0.093202 0.019216 
-0.092655 0.337794 0.159179 
0.179968 0.355779 -0.075954 
-0.185925 0.325468 -0.007299 
-0.029676 0.315271 0.177368 
0.125571 0.252905 0.065742 
0.010583 0.176639 0.094802 
-0.073342 -0.229212 -0.069906 
0.080975 0.221403 0.078785 
0.019456 -0.070083 -0.013007 
-0.107016 0.246925 0.071320 
0.105518 0.359260 0.167053 
0.059162 0.134764 -0.008667 
0.099564 0.202434 0.019036 
-0.170989 0.351425 0.107330 
-0.036494 0.199102 0.092376 
-0.078248 0.339808 -0.168103 
-0.104406 0.209430 0.016178 
0.015756 0.352522 -0.192633 
-0.047099 0.275576 -0.148271 
0.020227 -0.058039 -0.012100 
-0.166895 0.313024 -0.026682 
-0.081265 0.165543 -0.035524 
-0.131267 -0.241421 0.038124 
0.107897 -0.251879 -0.021115 
-0.071204 0.306937 -0.159580 
0.007376 -0.251879 0.002226 
0.068456 -0.251879 -0.027267 
0.044182 0.238249 -0.125247 
0.195848 0.359349 0.065645 
0.004539 0.215779 -0.109445 
0.028597 -0.251879 0.030302 
-0.011269 0.054849 0.024168 
0.050891 -0.223420 -0.060018 
0.053137 -0.251879 0.010221 
-0.163361 0.288565 -0.006976 
0.089332 0.210010 0.057078 
0.089016 -0.226071 0.002127 
0.125073 0.225869 0.007013 
-0.166985 0.311886 0.060957 
0.128751 0.250004 0.021162 
0.100576 0.248902 0.082066 
-0.180057 0.345134 0.056435 
0.045805 0.358014 -0.191354 
-0.119991 0.223180 -0.029814 
0.012035 -0.193394 -0.023594 
0.066539 0.173612 0.050768 
0.072902 -0.251879 0.068650 
-0.081526 -0.237448 0.103347 
-0.127506 -0.240018 0.046471 
-0.027011 0.104567 -0.030797 
-0.046469 0.137259 -0.054577 
-0.020020 0.024509 0.014506 
-0.176024 0.344341 0.066619 
-0.046994 0.334961 0.186034 
-0.012303 0.139749 0.072135 
0.122771 0.238776 -0.014399 
0.195726 0.346255 -0.034584 
0.088450 0.182830 0.044783 
-0.045831 0.130232 -0.033880 
0.085980 0.213447 -0.065537 
0.150063 0.292949 -0.045289 
0.123334 0.226235 -0.023169 
-0.132996 0.283948 -0.090187 
0.115672 0.226655 0.011063 
0.077966 0.352891 0.177111 
0.017485 0.133136 -0.066980 
0.114421 0.363343 -0.164596 
-0.116348 0.354618 0.155997 
0.171924 0.321066 0.063781 
0.006031 0.086043 -0.026954 
0.101873 0.221948 -0.068728 
-0.059588 0.307541 0.154585 
-0.016711 0.264626 0.147951 
0.042663 0.094738 0.018911 
-0.019658 -0.026979 0.013761 
-0.028791 -0.251879 -0.015136 
-0.084962 0.201202 -0.053902 
-0.025093 0.046248 0.004213 
0.073668 0.263857 -0.117817 
0.064215 -0.251879 -0.085749 
0.022088 -0.194246 0.015520 
-0.119124 0.263691 -0.071354 
-0.179024 0.335535 -0.036939 
0.112612 0.207967 0.020059 
-0.160855 0.305750 0.034762 
-0.161455 0.299398 0.053657 
0.085355 0.215296 0.068175 
-0.125326 0.317618 0.130970 
-0.102564 0.221159 0.066810 
0.009711 -0.251879 0.030342 
0.146489 0.300124 0.067098 
0.009498 -0.251879 -0.069824 
0.014185 -0.227555 -0.093779 
0.009814 0.078675 -0.036361 
-0.104451 0.204880 -0.041810 
0.034877 -0.209338 0.002144 
-0.116523 0.321487 0.141940 
-0.026886 0.307860 -0.163661 
-0.067619 0.226534 0.094400 
-0.086649 0.211753 0.078154 
-0.027275 -0.225377 0.081904 
0.122338 -0.235536 0.028889 
0.030344 -0.238547 -0.130448 
0.093557 -0.228431 -0.030039 
0.164280 0.341130 -0.106226 
0.072062 0.359025 -0.193379 
-0.021592 -0.130776 0.006550 
-0.029540 0.171676 -0.077041 
-0.198307 0.360582 0.007891 
-0.092111 0.265532 -0.117692 
-0.174321 0.308811 -0.023378 
-0.122856 0.304151 -0.121857 
0.026286 0.188456 0.089001 
0.012672 -0.156423 0.018242 
0.162002 0.301576 0.001802 
0.004216 -0.251879 -0.050107 
0.114607 0.262691 -0.093189 
0.146633 0.294654 -0.080393 
-0.062008 0.158926 -0.057683 
0.084521 0.294321 -0.133004 
0.046751 0.099492 0.015990 
0.127562 -0.236189 -0.010075 
0.055900 0.215923 0.105309 
-0.015419 -0.223998 -0.079463 
-0.021424 0.278093 0.146100 
-0.052702 0.140478 0.035105 
0.099295 0.297910 0.125172 
-0.140836 0.254153 -0.021747 
-0.037732 0.238214 -0.127314 
0.110291 0.269800 0.090381 
-0.041461 0.364764 0.197776 
-0.103776 0.282696 0.121684 
-0.091373 -0.251879 0.021790 
0.106051 -0.233743 -0.053964 
0.144638 0.320898 0.112572 
0.064718 0.267875 0.136297 
-0.158957 0.302776 -0.034950 
-0.050036 0.221972 -0.112259 
0.041902 0.258049 0.128759 
0.151501 0.328201 0.094015 
-0.134010 0.271349 -0.073815 
0.056636 -0.251879 -0.041791 
-0.019527 0.296542 -0.167248 
-0.112914 -0.251836 0.044583 
-0.154218 0.310588 0.086815 
0.043299 -0.219273 -0.045042 
-0.108916 -0.240906 0.082056 
0.015295 0.211442 -0.105787 
0.060917 0.168666 0.067033 
0.057969 0.335097 -0.182990 
0.102443 0.307325 -0.130025 
-0.143633 0.349533 -0.126535 
-0.085884 0.177325 0.004025 
0.005546 0.315602 -0.179948 
-0.051713 0.213136 -0.105539 
0.098115 0.181804 -0.008838 
-0.016618 0.138297 0.059707 
-0.089455 -0.251879 0.015366 
-0.137341 0.269315 0.037210 
-0.055230 0.219730 -0.108265 
0.094571 0.249331 0.102638 
-0.107995 0.229830 -0.047917 
0.015577 0.107076 0.039603 
-0.045171 0.092145 -0.000897 
0.085309 0.184282 0.029426 
-0.141188 0.290697 0.064834 
0.024029 -0.010205 0.003116 
-0.053576 0.341675 -0.178716 
-0.154445 0.274265 0.010092 
-0.022199 0.134263 0.066278 
-0.069473 0.244363 0.106347 
-0.142887 0.334966 0.128060 
-0.078865 0.210615 -0.085058 
-0.161324 0.308692 -0.069880 
0.061169 0.222474 -0.106950 
-0.033646 0.328441 0.175249 
-0.142767 0.359852 -0.137158 
-0.036628 0.365222 -0.202259 
-0.038964 0.111982 0.041188 
-0.027455 0.192854 0.091469 
0.065190 0.191429 -0.068591 
-0.026016 0.088872 0.034651 
-0.087393 0.217339 -0.067615 
0.025257 0.255674 0.131548 
0.087192 0.345816 0.178305 
-0.004485 0.238747 -0.123512 
0.088450 0.305578 -0.138660 
-0.081505 0.176151 0.025010 
-0.033164 0.099330 -0.017772 
0.132018 0.252578 -0.003418 
-0.021858 -0.054793 0.008939 
-0.075839 -0.237629 -0.108183 
-0.186204 0.354412 -0.056127 
-0.188329 0.330180 0.015290 
0.053392 0.106706 -0.004646 
0.057823 -0.251882 0.032475 
0.120498 0.365213 -0.165835 
0.078872 0.161141 0.034357 
0.005584 0.095379 0.034588 
0.091329 0.243941 0.101155 
0.125216 0.328022 0.126787 
-0.073305 -0.222326 -0.012796 
0.099812 0.300551 -0.138639 
-0.073443 0.290123 0.136518 
-0.081891 -0.247141 0.110501 
-0.156992 0.334810 0.110166 
0.016809 0.088797 -0.025307 
-0.023285 -0.070274 0.002329 
0.141487 0.364978 -0.145330 
-0.019493 -0.251879 0.041694 
-0.129705 -0.245529 0.046141 
0.060251 0.178462 0.062304 
0.005536 0.084931 -0.015756 
-0.020452 -0.062346 0.011595 
0.024134 0.085227 -0.008302 
0.115798 -0.235313 0.046816 
0.024090 0.249514 0.137586 
-0.023918 0.289169 0.162130 
-0.081183 0.349942 -0.173638 
0.025294 0.057384 -0.010583 
-0.000359 0.327107 0.187077 
0.005129 0.216759 0.110023 
0.112580 -0.232515 -0.019337 
0.007436 0.320628 -0.173510 
-0.114044 0.240555 0.050460 
0.046337 0.289724 -0.147668 
-0.092024 -0.251879 -0.043895 
-0.086815 0.165353 0.017583 
0.015259 0.131684 0.066637 
0.024262 0.001490 -0.002501 
-0.066366 0.180373 -0.071628 
-0.002544 -0.251879 0.020904 
-0.186057 0.361918 0.071636 
-0.029754 0.158851 -0.068442 
-0.034964 0.108153 0.041734 
-0.028649 0.267764 -0.148063 
0.005354 0.167724 0.079901 
0.092324 0.224366 0.083320 
0.065782 0.170041 0.063468 
-0.086725 0.229512 0.093439 
-0.134787 0.276753 0.079118 
-0.001503 0.153638 0.071410 
-0.003887 -0.057632 0.023251 
-0.164919 0.361003 -0.110926 
-0.195800 0.355850 -0.059112 
0.157286 0.302256 0.040554 
-0.109375 0.288565 -0.108503 
0.042794 -0.251855 -0.110976 
-0.062431 0.223385 -0.106856 
0.024676 0.169233 -0.077156 
0.042792 0.093328 -0.016465 
-0.016615 -0.140724 0.015065 
-0.135461 0.341888 0.128490 
0.036892 -0.251880 0.075533 
-0.128683 0.231550 -0.003501 
-0.049587 -0.251879 -0.090422 
-0.008718 0.303207 -0.172242 
-0.043511 0.090049 -0.006540 
-0.144526 0.292137 -0.059382 
0.066551 0.215579 -0.098668 
0.015624 -0.215716 -0.046117 
0.040085 0.191809 -0.085970 
-0.107703 0.238506 -0.060326 
0.108223 -0.251879 0.025407 
0.009119 0.359367 0.197444 
-0.000403 0.268572 -0.151305 
0.125987 0.306887 -0.106955 
0.158235 0.332625 0.087903 
0.001556 0.320612 -0.173649 
-0.004468 0.032352 0.024466 
0.119246 0.282501 0.106385 
0.107080 0.321024 0.137045 
-0.041870 0.107267 0.008263 
0.148408 0.330813 -0.101682 
-0.017474 -0.130721 -0.014279 
0.017099 -0.010613 0.017158 
0.025216 0.200670 0.107023 
0.134688 0.269883 0.046949 
0.106679 0.220522 -0.059227 
-0.057988 -0.251583 0.115889 
-0.058364 0.318134 -0.161953 
0.074279 0.184312 0.067011 
-0.132113 0.268064 -0.050774 
0.136344 0.328611 0.115287 
0.024298 -0.003644 0.000989 
0.048840 0.229600 0.107414 
0.105360 0.364428 -0.171758 
-0.113242 -0.232402 0.011119 
0.013329 0.197042 -0.106932 
0.039567 0.363662 0.204992 
-0.164949 0.308328 -0.019939 
0.033455 -0.251882 0.059442 
-0.119613 0.275592 0.099499 
-0.091071 0.170342 0.009710 
-0.207851 0.361726 -0.003311 
0.000320 0.292032 -0.156185 
0.056077 0.247698 -0.116251 
0.096948 0.251520 -0.088711 
0.000387 0.172568 -0.092933 
-0.016745 0.171686 0.080795 
-0.030440 -0.251879 -0.051056 
0.018170 0.087642 0.038572 
-0.103452 0.199306 0.034746 
-0.103332 0.197645 -0.031828 
-0.114411 0.240522 -0.070127 
-0.040036 -0.251879 0.027156 
-0.046609 -0.251879 -0.042425 
0.022652 -0.031227 -0.007737 
-0.118336 0.326756 0.132191 
0.077298 0.278669 0.126221 
-0.157502 0.297569 -0.061313 
-0.001944 0.127070 -0.065589 
-0.137644 0.297347 -0.097850 
-0.168091 0.313314 0.019275 
0.004330 -0.106455 -0.022488 
0.143282 0.280842 0.042100 
-0.188278 0.348658 -0.031421 
-0.179923 0.330856 0.001431 
-0.017762 0.228313 -0.115857 
-0.160752 0.330432 -0.099590 
-0.141172 0.332139 0.112818 
-0.111430 0.232336 -0.043646 
-0.002586 -0.027207 0.023855 
-0.068587 -0.251879 -0.060925 
0.007269 0.364586 -0.208684 
0.030181 0.184398 0.095426 
0.123870 0.246780 -0.034243 
0.130582 -0.251369 -0.023195 
0.067805 0.352228 -0.180799 
0.015031 -0.250478 0.134864 
0.183048 0.343215 -0.072560 
0.022620 -0.077695 0.005574 
0.009508 -0.218881 0.060197 
0.019027 0.061752 -0.022047 
0.011324 0.313249 -0.178236 
0.135632 -0.242677 -0.020781 
-0.024461 0.348668 0.198723 
0.171524 0.310591 -0.043588 
0.036656 -0.219259 -0.050526 
0.121428 0.343218 0.155019 
-0.189122 0.351053 0.069976 
-0.019104 0.114512 -0.043188 
0.014426 0.308851 -0.175315 
-0.109508 0.248971 -0.069784 
-0.082483 -0.224511 0.008716 
0.093093 0.345934 0.175389 
-0.137881 0.262610 -0.009214 
0.061281 0.172222 0.055749 
0.174733 0.338427 0.084254 
-0.049530 0.287906 0.155401 
0.180896 0.317041 -0.002418 
-0.116769 0.227620 -0.002098 
-0.042752 0.300691 -0.165488 
0.156850 0.282009 -0.028963 
-0.018484 0.204938 -0.111018 
-0.001900 0.332448 0.190325 
-0.001266 -0.228013 -0.096622 
0.008545 0.002625 -0.022862 
0.001814 -0.067566 -0.023366 
-0.153890 0.273692 -0.012844 
-0.076929 0.183102 -0.062797 
0.045431 0.111389 0.033333 
0.195852 0.364725 0.049390 
0.013296 0.084931 -0.004041 
-0.085168 0.333063 0.170644 
0.109821 0.214098 0.043470 
0.156468 0.327203 0.102640 
-0.100544 -0.229055 -0.005589 
-0.028443 0.236761 0.119028 
-0.011172 -0.213371 0.039376 
-0.047704 0.124865 -0.043127 
0.074138 0.234486 -0.107412 
-0.099765 0.355940 -0.178598 
0.014323 0.076642 -0.033626 
-0.141770 0.328113 0.108045 
-0.122929 0.237935 -0.006494 
0.053169 -0.218039 0.022304 
0.062389 0.360427 0.188305 
0.093295 0.231684 0.074307 
0.004806 -0.251879 -0.037783 
0.090195 0.350256 0.179828 
0.055343 -0.227071 -0.074688 
0.006780 0.111369 -0.044743 
-0.033681 0.204175 0.106898 
0.094351 0.343039 0.161919 
-0.046489 0.295635 0.161261 
0.026082 0.052041 0.000055 
-0.059430 -0.251879 -0.089517 
-0.042177 0.124498 -0.048252 
-0.055748 -0.251879 -0.049759 
0.011475 0.084931 -0.014199 
0.006915 -0.174349 0.020920 
-0.122069 0.241081 -0.027033 
-0.024215 -0.225057 -0.081553 
0.009516 0.026231 -0.022855 
-0.094059 0.180275 -0.026036 
0.050636 0.141051 0.038605 
0.001115 -0.075415 -0.023302 
0.060321 0.267606 0.127726 
-0.101978 0.345639 0.159138 
0.099033 0.212254 0.041511 
-0.102378 0.317021 0.137550 
0.029964 0.217849 -0.116605 
-0.035170 0.098508 -0.011765 
0.066628 0.311602 -0.164617 
0.134774 -0.241252 0.022192 
-0.001716 0.205719 0.103364 
-0.102917 0.226406 0.053607 
0.062689 0.355884 0.194692 
-0.109627 0.230457 0.045058 
-0.158324 0.317687 0.066880 
-0.059827 0.223876 0.097619 
-0.162619 0.316542 0.053446 
0.127172 0.274782 0.070967 
0.145784 0.263520 -0.026741 
0.020824 -0.115534 -0.009219 
0.036036 0.120340 0.035881 
0.198398 0.351176 -0.036503 
0.007352 -0.233944 0.119537 
0.020368 0.178468 0.084247 
-0.003609 0.247589 0.138461 
0.088347 0.268278 0.110729 
-0.125980 0.292309 -0.092604 
0.059347 -0.218596 0.007611 
0.047867 -0.251879 0.017581 
-0.088566 0.209632 0.057829 
-0.069290 0.340536 -0.182567 
-0.082051 0.227456 0.082964 
0.063122 0.201472 -0.078555 
0.052523 0.125285 -0.037531 
-0.050847 -0.251879 0.061928 
0.164296 0.320037 0.080013 
-0.009198 0.256303 0.143516 
0.068319 0.210705 0.081608 
0.007553 -0.215507 -0.047324 
0.135100 0.345784 0.132305 
0.042712 0.347366 -0.194799 
0.146001 0.363422 -0.137446 
-0.056761 0.249187 0.127410 
-0.006597 0.180181 0.087480 
0.177567 0.329202 0.021998 
-0.019364 0.210206 -0.114119 
0.054818 0.330559 -0.181078 
-0.046537 -0.216862 -0.025524 
0.121423 -0.235962 0.038008 
0.007062 0.021121 -0.023638 
-0.084481 0.303382 0.150473 
-0.130039 0.268520 0.077289 
-0.088883 0.232707 -0.080480 
-0.162966 0.358864 -0.126481 
-0.123704 0.277335 -0.079770 
-0.108869 -0.231424 0.015405 
-0.019164 -0.166546 0.010985 
-0.023006 0.023541 0.009004 
-0.003893 0.332301 -0.190211 
-0.000468 0.013379 0.024552 
-0.155465 0.317118 -0.072461 
-0.029443 0.119068 -0.040488 
0.019745 -0.202490 0.024263 
0.127899 0.320295 -0.117185 
0.159801 0.307032 0.042471 
-0.022508 -0.035397 0.007986 
-0.008292 -0.251881 0.064247 
-0.092394 0.345535 -0.175480 
0.028664 0.214773 0.115010 
-0.099155 0.211356 0.039761 
0.085601 -0.226625 0.031479 
-0.085084 0.175902 -0.001763 
0.068367 -0.251879 -0.058204 
0.159098 0.313337 0.057616 
-0.165401 0.341889 0.105353 
-0.065824 0.277895 -0.132046 
-0.141137 0.346923 0.140525 
0.158404 0.280260 -0.003261 
-0.011776 -0.228423 0.097525 
0.158119 0.324985 0.097513 
-0.111122 0.277971 -0.110976 
0.022264 -0.150991 0.000982 
-0.067741 0.189273 0.064161 
0.023325 0.223774 -0.121784 
-0.024404 0.266832 -0.138646 
-0.003055 -0.187413 0.022812 
-0.040047 0.218663 -0.103855 
-0.079745 -0.251879 -0.002059 
-0.054071 0.224815 0.101578 
-0.080153 0.237310 0.092930 
0.173752 0.341127 0.089895 
0.089009 0.166360 0.005518 
0.045758 0.098927 -0.017764 
-0.035883 0.161142 -0.078188 
-0.057673 -0.251879 0.061724 
-0.094472 0.311575 0.139078 
-0.031384 0.152964 0.063696 
0.085791 0.352538 0.173205 
-0.094287 0.186627 0.037413 
0.118164 0.215454 0.013522 
-0.042337 0.114306 -0.020626 
0.149743 0.321444 -0.106258 
0.085100 0.271812 0.127495 
-0.023063 0.160977 -0.072351 
-0.074261 0.330392 -0.163576 
0.077746 0.189893 -0.052268 
0.023587 0.270772 0.150808 
0.080759 0.323844 -0.155963 
0.125812 0.236646 -0.039379 
-0.077965 0.188896 0.050825 
0.005486 -0.096521 -0.022375 
0.089660 0.184497 0.011351 
-0.194358 0.357200 -0.027118 
0.044097 0.117723 -0.021880 
-0.048258 0.137736 0.053388 
0.117747 0.224090 -0.039479 
-0.006660 0.102103 0.038827 
0.134002 -0.239180 0.014955 
-0.125243 0.327094 0.138958 
0.030809 0.073082 -0.015898 
0.202973 0.365103 0.016287 
0.178276 0.332615 -0.031347 
-0.035297 0.084064 0.020094 
0.169105 0.336872 -0.071545 
-0.152974 0.289609 0.023076 
-0.094401 0.287539 0.132743 
0.080878 -0.251881 0.044835 
0.010497 -0.251879 -0.036024 
0.096987 0.217792 -0.053509 
0.164084 0.306699 -0.018691 
0.062658 0.284710 -0.148474 
-0.006095 -0.063420 0.022690 
-0.153200 0.350985 0.131071 
0.081177 0.310240 -0.146299 
-0.064460 0.156978 -0.035268 
0.104427 0.257888 0.086040 
-0.044287 0.102295 -0.025358 
0.171894 0.308924 -0.037574 
0.009463 0.210678 0.105992 
-0.084819 -0.251879 0.033890 
-0.024652 -0.235688 0.123832 
-0.175609 0.359793 0.091314 
0.070337 0.169467 0.057837 
0.127067 0.331552 -0.140981 
-0.102359 -0.230424 -0.027720 
0.134438 0.256844 -0.052012 
0.029195 -0.251879 0.075511 
-0.182806 0.349967 0.057685 
0.027058 0.122764 0.044825 
0.022941 0.289175 -0.162268 
-0.122131 0.232199 0.041902 
-0.008738 -0.251706 -0.126030 
0.012314 -0.153886 -0.018530 
-0.124195 0.313989 -0.128974 
-0.144342 0.362556 0.150143 
0.034711 0.188044 -0.096232 
0.062622 0.133363 -0.029825 
0.108643 0.245147 0.066743 
0.148008 0.312148 0.080491 
0.055719 0.217370 0.095437 
-0.200911 0.363915 0.002929 
-0.091192 -0.227744 0.028630 
-0.205054 0.358105 0.018092 
0.108789 -0.251715 0.064537 
0.164979 0.306504 0.004295 
-0.133908 0.259496 0.057574 
-0.076072 -0.251701 -0.101538 
0.016776 0.320274 -0.182122 
-0.031013 0.237642 0.128757 
0.010532 0.222457 0.113136 
0.088729 0.341656 0.174719 
0.038230 0.342105 -0.192483 
-0.091487 -0.251879 -0.030354 
0.106309 0.294627 -0.116576 
-0.132505 0.293566 -0.100925 
0.021934 0.330360 0.187783 
0.108621 0.198843 -0.007020 
0.048116 0.286758 0.145198 
-0.094341 0.313574 0.151879 
-0.108540 0.319293 0.146469 
0.139960 0.256940 0.034732 
0.082921 -0.231884 -0.074923 
0.076921 0.252917 0.119062 
-0.056255 0.278113 0.136544 
0.016620 0.108104 0.051815 
0.021272 -0.220693 0.064614 
-0.012570 -0.172339 0.018111 
-0.071824 0.229416 0.105255 
-0.150011 0.306938 0.089627 
0.071352 0.293162 0.139707 
0.173530 0.320598 0.006360 
-0.078309 0.221121 0.094048 
0.188873 0.333483 0.028296 
0.198625 0.365066 0.043480 
-0.072012 0.303811 -0.146654 
0.003622 0.069554 -0.032641 
-0.129901 -0.237573 -0.023246 
-0.093288 0.220168 -0.062395 
-0.105648 0.279167 -0.117178 
-0.019245 -0.085985 0.012925 
0.151513 0.283794 0.053240 
0.002507 0.166921 -0.089488 
-0.128094 0.312534 -0.109812 
-0.012428 -0.044616 0.020241 
0.159598 0.344031 0.116171 
-0.010740 -0.226070 -0.088388 
-0.090517 0.176485 -0.029822 
-0.118544 0.228158 0.044622 
-0.038532 -0.232242 -0.106397 
0.121456 0.297230 -0.103166 
0.045305 0.329852 -0.173496 
-0.096418 0.278584 0.112238 
0.015909 0.364130 0.200543 
-0.041650 0.224205 0.106868 
-0.047109 -0.223504 0.063445 
0.073819 0.245656 0.104353 
0.169056 0.301151 -0.026993 
0.117284 0.360483 -0.160023 
-0.120090 -0.251807 0.013340 
-0.044346 -0.229280 -0.091383 
0.184283 0.332116 0.046828 
-0.106590 0.247447 0.088305 
0.183057 0.320997 0.010081 
0.135114 0.257571 -0.000357 
-0.073957 0.165860 0.049305 
-0.003042 0.185679 0.091049 
0.003774 0.318234 0.181607 
0.176908 0.325558 0.057853 
0.044015 0.308389 0.160253 
0.023761 -0.023976 -0.003652 
-0.041072 0.270605 0.137061 
-0.030503 0.249543 0.136331 
-0.082663 0.174512 0.016282 
0.049642 0.101684 -0.010203 
-0.054748 0.280641 -0.138808 
0.129697 0.336562 -0.129722 
0.208373 0.363732 0.013097 
-0.017151 0.329636 -0.187835 
0.124899 0.225254 0.000329 
-0.031743 0.157416 -0.077538 
0.185458 0.342022 -0.022248 
0.009417 -0.167315 -0.019975 
0.090091 0.208360 -0.053932 
-0.000656 0.029690 -0.024814 
-0.047238 -0.251879 0.068048 
0.050583 -0.217988 0.027257 
-0.054071 0.256788 -0.123298 
0.087906 0.331574 0.168216 
-0.078550 0.333573 -0.174127 
0.087615 0.239295 -0.087656 
0.120670 -0.241396 -0.064202 
0.164286 0.291167 0.016446 
-0.031386 0.362372 -0.197225 
0.037052 0.338879 0.190700 
-0.061907 -0.222062 -0.039397 
-0.092267 -0.231508 0.060404 
-0.020237 -0.075959 0.011592 
-0.056910 0.143778 0.032142 
0.042876 0.267940 -0.144696 
-0.205907 0.365212 -0.008766 
-0.044354 0.259441 0.138812 
-0.129000 0.249846 -0.054093 
-0.112450 0.204856 0.003247 
0.140938 0.278312 0.069729 
0.034327 0.317441 -0.168255 
0.101717 -0.231187 0.039260 
-0.060403 0.230893 0.113226 
-0.065785 0.192409 0.068852 
-0.018105 -0.185019 0.013144 
-0.104843 0.236003 0.079273 
-0.152083 0.307308 -0.065328 
-0.028789 -0.251630 -0.126049 
0.010162 0.105294 -0.051780 
0.070044 0.330687 0.165622 
-0.179424 0.328023 -0.054904 
0.006843 -0.251884 0.066928 
0.060725 -0.236137 0.112444 
-0.126919 -0.237943 -0.038959 
0.153647 0.338216 -0.118208 
-0.134493 0.320090 0.109358 
0.068827 0.234368 -0.099415 
0.095611 -0.229858 -0.040498 
-0.053070 0.183965 -0.084550 
0.089883 0.347040 -0.167263 
0.130497 0.336693 0.129020 
0.104216 0.207387 0.006207 
-0.124786 0.262269 0.078564 
0.104028 0.268336 0.109675 
0.035506 -0.237566 -0.127079 
-0.162769 0.335354 -0.082955 
-0.123709 0.281325 -0.100020 
-0.053067 0.199599 0.095557 
0.069868 -0.222584 0.028394 
-0.012417 0.198686 -0.108041 
-0.034469 0.311832 -0.174363 
-0.023571 0.330750 -0.187832 
0.097913 0.294082 -0.135137 
-0.063831 0.137693 0.033172 
0.004036 0.087797 0.029257 
-0.007187 0.138242 -0.071914 
-0.183207 0.351943 -0.060482 
-0.113296 0.299279 -0.113848 
0.082727 -0.251879 -0.004558 
0.107233 0.230052 0.049899 
-0.011074 0.083975 -0.039027 
0.111385 0.212991 0.037227 
0.011342 0.340999 -0.195223 
-0.042044 -0.235842 0.119634 
0.080229 0.215005 0.073879 
-0.027605 -0.251879 -0.064417 
-0.068549 0.332928 -0.177891 
0.024844 -0.251879 0.040589 
0.148859 0.269852 0.031136 
0.011915 0.069174 -0.030405 
0.111414 0.227573 -0.059515 
0.151830 0.356500 -0.137613 
0.068695 0.132484 -0.004400 
-0.115298 0.274504 0.103479 
-0.172021 0.356136 0.110927 
-0.067704 0.337148 0.180953 
0.109483 0.228855 0.042781 
0.034072 0.126297 -0.055538 
0.019839 0.126460 -0.062165 
-0.082470 -0.226623 0.038943 
-0.062184 0.169508 -0.052176 
-0.065588 -0.220206 -0.008386 
0.042300 -0.251879 -0.080710 
0.127715 0.251983 -0.032136 
-0.030378 0.132262 -0.061625 
0.180717 0.332160 0.001718 
0.034297 0.190199 -0.087380 
-0.053530 0.220342 -0.098756 
-0.039947 0.299830 0.165644 
-0.124402 0.262978 -0.060679 
-0.033396 -0.251879 -0.020815 
-0.085861 0.223810 -0.089494 
-0.069922 0.247548 0.119523 
-0.006052 -0.251879 -0.063705 
-0.179352 0.340160 -0.047896 
0.015674 0.328381 0.187192 
-0.077440 0.172651 -0.030158 
0.030178 -0.204026 0.010564 
-0.035862 0.098789 -0.033397 
0.019204 0.274085 -0.153477 
0.000910 -0.229339 -0.101804 
-0.105253 0.213651 -0.053011 
-0.036976 0.188720 -0.085291 
0.052508 -0.251879 0.052832 
0.060159 0.214125 -0.101662 
0.067716 0.243182 0.106629 
-0.045980 0.319656 -0.166863 
-0.150461 0.289349 0.065219 
-0.063246 0.288349 -0.150642 
-0.065481 0.305010 -0.160734 
0.012510 -0.183620 -0.018360 
0.077927 0.156592 0.029395 
0.065068 0.283189 0.136014 
-0.106590 0.197363 -0.017067 
-0.121445 -0.251345 -0.053928 
-0.040256 0.129633 -0.053739 
0.044270 -0.214750 -0.009094 
-0.033411 0.212180 0.112073 
-0.018016 0.161816 0.074301 
0.028535 0.161642 0.070812 
0.203239 0.365215 -0.027788 
-0.155448 0.299063 0.068653 
0.105022 -0.236688 0.075841 
-0.009688 0.250070 0.139680 
-0.041521 0.204376 -0.093780 
0.034465 0.127611 0.043336 
0.014309 0.159786 0.084002 
-0.151750 0.276793 0.037538 
-0.083812 -0.251294 0.103006 
0.063474 -0.245175 -0.122160 
-0.024760 -0.191099 -0.004081 
-0.156904 0.294504 0.015805 
-0.106072 0.198212 0.022650 
-0.047945 0.223249 -0.103549 
-0.144111 0.260131 0.024350 
0.095634 0.234275 0.088627 
-0.016097 0.338507 -0.183918 
0.129390 -0.237075 0.018065 
0.023129 -0.223973 0.077466 
0.146420 0.365210 0.143278 
0.062772 0.289578 -0.151661 
-0.097031 -0.251875 -0.050940 
-0.042350 0.303229 -0.157429 
-0.034115 -0.250738 0.130762 
0.051638 0.233235 0.119033 
0.016481 -0.146292 0.015099 
0.113391 0.225579 0.022185 
-0.048433 0.220557 0.101503 
0.124148 -0.251678 0.029974 
-0.005021 0.099983 -0.037708 
-0.005620 0.299009 0.169795 
-0.133885 0.275481 -0.079125 
-0.112030 0.230604 0.038957 
0.055445 -0.251814 -0.106771 
-0.139386 0.255727 -0.033953 
-0.043716 0.242801 -0.128340 
-0.039307 0.354599 0.199958 
0.083252 0.357524 -0.177940 
-0.093696 0.309800 -0.138293 
0.015418 0.084931 0.003180 
-0.030862 -0.214514 0.031925 
-0.064500 0.253993 0.126963 
0.001285 0.030767 0.024810 
0.133451 0.361606 0.159298 
0.092092 -0.251778 -0.082994 
0.039546 0.161619 0.065290 
-0.039619 -0.251879 -0.081825 
0.075084 0.156415 -0.035801 
0.181905 0.320162 -0.018343 
0.154440 0.292460 0.024931 
0.062098 0.178631 0.073987 
-0.039414 -0.251879 0.015037 
0.021990 -0.128362 0.005197 
0.141747 0.268896 -0.009014 
-0.145129 0.319220 0.093802 
-0.082709 0.218030 0.087642 
0.081243 0.240361 -0.106680 
-0.012700 0.348070 -0.199444 
0.055121 0.181744 0.069472 
-0.030230 -0.251879 -0.086643 
0.035017 0.244645 0.132144 
0.078855 -0.233235 -0.086464 
0.010319 -0.094345 0.020630 
-0.101964 0.212540 0.034231 
0.124902 0.256767 0.050208 
-0.017039 0.010362 0.017625 
0.141807 0.296076 -0.090280 
-0.041648 -0.213838 -0.006850 
-0.117228 0.238629 -0.062916 
-0.090621 -0.251879 -0.051065 
0.116293 0.223548 0.042626 
-0.073358 0.184532 0.052820 
0.058290 0.294432 -0.156596 
0.068537 0.306821 -0.150336 
0.067188 -0.233888 -0.098887 
-0.002609 0.097063 0.036048 
-0.141829 0.311708 -0.090450 
0.064638 0.143030 0.005802 
-0.165491 0.304070 0.050388 
-0.018364 0.139245 -0.070517 
-0.116007 0.230753 -0.054678 
0.100829 0.263862 -0.095622 
0.123457 0.248604 -0.064124 
0.056182 0.165444 -0.055085 
0.173502 0.325905 -0.067962 
-0.109781 0.359117 0.174814 
-0.034296 0.193985 0.089869 
0.083089 0.288866 -0.141037 
0.015601 0.192615 0.103911 
0.072554 0.215273 0.081648 
0.066348 0.187138 -0.077148 
-0.024977 0.103183 0.031348 
-0.021822 0.115569 -0.054604 
0.195353 0.359932 -0.032449 
-0.008815 0.331715 0.189690 
0.080886 -0.226800 0.043608 
-0.058961 0.254309 0.129837 
0.148455 0.289703 0.070195 
-0.124988 0.252538 -0.042543 
0.021541 -0.133729 0.006585 
0.011114 0.270468 -0.152062 
-0.028113 0.061283 -0.006818 
0.111609 0.295408 -0.125152 
-0.130650 0.276186 0.066269 
0.070844 0.242028 -0.115047 
-0.005622 0.255371 -0.133646 
-0.112083 0.259711 -0.077765 
-0.135409 0.300040 -0.103642 
0.106642 -0.251817 0.055204 
-0.081104 -0.231615 0.075341 
-0.083865 0.210427 0.065265 
0.039094 0.274251 -0.149748 
-0.003916 -0.226725 -0.091513 
-0.066635 0.160741 -0.054033 
0.103726 0.261582 0.090360 
0.140024 0.328518 -0.110702 
-0.023874 -0.034230 -0.001087 
0.004326 -0.236074 -0.127517 
-0.121497 -0.236050 -0.038712 
0.077424 0.147299 -0.006618 
-0.120264 -0.234080 0.001960 
-0.160456 0.284628 -0.014417 
-0.012897 -0.207003 0.030856 
-0.105395 0.280704 0.105693 
-0.170708 0.344852 0.100117 
-0.112166 0.242536 0.057208 
0.050239 -0.251879 -0.051095 
0.021515 0.190339 0.091457 
0.058093 0.306889 -0.164769 
0.022046 -0.072275 0.007762 
-0.052184 0.169579 0.074708 
0.044500 -0.232677 -0.105882 
-0.146718 0.296744 0.061448 
-0.199884 0.351954 -0.030553 
0.003120 -0.213422 -0.040952 
0.035612 0.227837 0.121348 
0.122984 0.265018 -0.066190 
-0.030223 0.331902 0.178029 
0.120370 -0.251668 -0.043156 
-0.012269 0.308158 0.175058 
-0.048386 0.275809 0.138026 
-0.014873 -0.251879 0.023209 
-0.169211 0.313718 -0.008912 
-0.023608 -0.238744 -0.132122 
0.098662 0.228407 -0.079672 
-0.057399 0.241392 0.111279 
0.152269 0.328223 -0.109840 
0.068890 0.171259 -0.061190 
0.154310 0.342719 -0.121828 
0.187150 0.329564 0.023210 
0.117576 0.327041 0.133096 
0.049041 0.174986 -0.080657 
0.124130 -0.251755 -0.023190 
-0.042243 -0.240905 0.129661 
0.113669 -0.251785 0.050591 
-0.022765 0.190887 0.101508 
-0.018647 -0.251879 0.005222 
-0.033844 -0.251879 0.014511 
-0.009581 -0.106850 0.020792 
0.078707 0.198871 -0.060351 
-0.087603 -0.225746 0.005320 
-0.080539 0.287866 0.130828 
0.109950 -0.239542 0.078763 
-0.044553 0.267409 -0.133914 
0.114082 0.257593 0.088864 
0.066678 0.204352 -0.090232 
-0.042882 -0.226199 -0.078600 
-0.043083 0.271070 -0.146626 
-0.197495 0.360620 -0.062870 
-0.068402 0.278970 0.131465 
-0.130194 0.271950 0.061309 
-0.062112 0.136458 -0.034810 
-0.167647 0.299181 0.028165 
-0.093748 0.249212 0.090060 
-0.125287 0.319431 -0.132534 
0.009896 -0.122333 -0.020410 
-0.041541 -0.251879 0.098014 
0.004467 -0.230107 0.104711 
0.082772 0.244690 -0.096627 
-0.012951 0.169597 -0.080191 
-0.126136 0.243018 0.050084 
0.044086 0.179365 0.086447 
0.206063 0.365213 0.001839 
0.002689 -0.251879 0.028302 
0.009027 0.192432 0.104569 
0.157847 0.300064 0.032182 
-0.080383 -0.224158 -0.013875 
0.001744 0.261780 0.137670 
0.116813 0.213652 -0.015521 
-0.095957 0.220370 0.058433 
0.128201 0.266863 0.078369 
-0.018050 0.349643 0.199987 
0.068118 0.306672 0.160736 
0.057364 0.161864 -0.064696 
-0.114573 -0.233662 0.030936 
0.035883 -0.251879 0.005829 
0.064600 -0.234934 -0.105293 
0.176383 0.333523 0.073283 
0.039927 -0.251879 -0.034369 
0.020596 -0.078602 0.010861 
-0.007886 0.109045 -0.043075 
0.140733 0.253172 -0.018202 
-0.051689 0.319837 0.175156 
-0.182048 0.337281 -0.025832 
-0.088100 0.169051 0.022038 
-0.151704 0.285023 0.007732 
0.016968 0.342592 -0.195790 
0.067547 0.357467 0.184432 
-0.171870 0.322633 0.066660 
0.104706 0.316120 0.135085 
0.162321 0.286665 0.003084 
-0.137829 0.304899 -0.088962 
-0.029587 0.123580 -0.043815 
-0.124907 -0.236470 -0.031653 
0.038548 0.226487 -0.109509 
-0.077317 -0.241389 -0.112706 
0.070987 0.194014 0.064938 
0.049395 -0.220663 0.046599 
0.105677 0.222244 0.041397 
-0.048602 -0.237791 0.123208 
0.105682 -0.230949 -0.022688 
0.047664 -0.251879 -0.026614 
0.137596 0.299753 -0.100422 
0.104729 -0.231192 -0.030377 
-0.193035 0.349433 -0.054848 
0.083360 0.266755 0.113381 
-0.106327 0.260372 -0.100491 
0.001532 0.035399 -0.024908 
-0.147298 0.317408 0.088245 
-0.029316 -0.251879 -0.057889 
0.128199 0.336816 -0.144271 
-0.048682 0.228926 -0.107033 
0.113310 0.335947 0.143767 
0.016708 0.222574 0.112470 
-0.166928 0.316007 -0.036354 
-0.054810 0.316555 -0.172099 
0.100565 -0.251879 0.004350 
0.012093 0.099230 0.047753 
0.059084 -0.241111 -0.123051 
0.124250 0.241043 0.013646 
0.008131 -0.037298 0.022425 
0.173893 0.336988 -0.059179 
-0.038357 -0.217565 0.040543 
-0.015062 0.076156 0.033008 
0.118526 0.268537 -0.094003 
0.023461 -0.044075 0.003757 
-0.115923 0.222216 -0.041284 
-0.040637 0.356323 -0.200732 
0.023413 0.213727 -0.115542 
-0.184451 0.338811 -0.011466 
0.075630 0.304967 0.156183 
-0.049740 -0.216938 -0.019361 
-0.053693 0.300348 0.162052 
0.158412 0.351585 0.109716 
0.114674 0.274225 0.103926 
-0.062360 0.254802 -0.117946 
0.182541 0.352361 0.063214 
0.027026 0.144177 -0.059778 
-0.001009 0.218170 -0.110996 
-0.008427 0.071767 -0.032921 
0.150350 0.362081 0.131105 
0.099979 -0.248648 -0.093850 
-0.077567 0.224442 0.084690 
-0.078169 0.172559 0.050248 
0.085600 0.299206 0.135855 
-0.021260 -0.117275 -0.008103 
-0.009203 -0.251351 -0.132214 
0.095002 0.278259 0.125260 
-0.118100 0.365220 -0.168093 
-0.108747 0.224018 0.059878 
0.156167 0.316345 -0.069792 
-0.144074 0.361624 0.137524 
0.154535 0.323142 0.082584 
-0.017133 -0.224829 0.082420 
-0.075381 -0.224635 0.035753 
0.025083 0.041022 -0.001606 
0.050667 0.121507 -0.009647 
0.003143 -0.185352 0.022187 
0.122414 0.240054 -0.022107 
-0.008581 -0.251879 -0.015033 
-0.014758 0.233607 0.129137 
0.123784 0.278718 0.097379 
-0.066037 0.288007 0.149219 
-0.029664 0.151397 -0.063455 
0.021707 -0.104222 0.007385 
0.068145 0.282906 0.144827 
-0.025773 -0.251879 0.012969 
0.020726 0.050659 -0.015535 
-0.049029 0.100760 -0.010525 
-0.108777 0.241388 0.062013 
-0.057767 0.272457 0.142402 
-0.024948 -0.251833 -0.119272 
-0.076021 0.357328 0.190803 
-0.089222 0.267673 0.109554 
0.049680 0.212383 -0.106010 
-0.122459 -0.251482 -0.047627 
-0.128471 0.256350 0.039373 
0.102252 -0.236036 -0.076124 
0.092970 -0.251879 -0.059494 
0.060655 -0.251040 -0.119688 
-0.044327 0.305730 0.168257 
0.091370 0.262161 -0.103303 
0.056762 -0.251712 -0.112514 
-0.057224 -0.219344 0.025761 
0.105808 -0.235756 0.069324 
-0.144971 0.265296 -0.035713 
-0.033091 0.108163 -0.027830 
-0.023662 -0.041127 0.002561 
-0.011633 0.311460 -0.167661 
0.109364 -0.251128 -0.077273 
-0.008421 -0.186700 0.021110 
0.105612 0.210634 -0.012853 
0.116673 0.246323 0.073196 
0.119302 -0.251818 -0.013911 
-0.010140 -0.251879 -0.028474 
-0.007562 -0.244758 -0.137415 
0.042031 -0.237446 -0.124735 
0.051935 0.156747 0.065229 
-0.096627 0.215390 -0.069284 
0.101884 0.280571 0.108961 
-0.035280 -0.221084 0.059937 
-0.135694 0.362856 -0.158195 
0.021098 -0.251879 0.087998 
0.107585 0.198193 0.013706 
-0.071492 0.359451 0.193843 
0.090864 0.301734 -0.134252 
-0.122195 0.269034 -0.072573 
0.058752 0.205123 0.084617 
0.009919 -0.251879 -0.050544 
0.117306 0.257847 -0.067371 
0.056563 -0.217760 0.000996 
0.055400 0.313431 0.159938 
0.023460 0.060142 -0.016100 
-0.140892 0.288822 -0.062725 
0.078869 0.262862 -0.125025 
0.189109 0.365056 0.085824 
-0.001703 -0.216848 0.052993 
0.127809 0.236633 0.032307 
-0.157088 0.324615 -0.098757 
0.083030 0.191876 0.045947 
-0.136327 0.248258 -0.026690 
-0.083225 0.275610 0.120127 
-0.071173 0.146562 -0.030069 
0.052903 0.130714 -0.021998 
-0.071158 -0.251817 0.098962 
-0.131379 0.315482 0.108713 
-0.024211 0.168608 -0.076903 
-0.113486 0.262176 -0.094061 
0.122572 0.309184 0.126456 
0.111776 0.219660 0.047612 
-0.052720 0.262544 0.137893 
-0.092062 0.292358 -0.126407 
-0.090567 0.185853 0.010793 
-0.043307 0.282757 -0.144150 
-0.067739 0.143067 0.032578 
-0.054966 -0.235363 0.112359 
0.009484 0.257830 -0.144432 
0.191985 0.338420 0.027801 
-0.116053 0.276752 -0.089967 
-0.072334 0.275013 0.126566 
-0.032941 -0.209570 0.012198 
0.006243 0.084958 -0.021317 
-0.001262 0.101345 -0.050468 
0.099618 0.226066 0.059108 
0.017932 0.102868 0.048131 
-0.177357 0.340735 -0.056003 
0.067402 0.155538 0.026955 
-0.145719 0.283598 0.039692 
0.102400 0.233434 -0.079895 
-0.062366 0.159238 -0.041426 
0.039330 0.354172 0.190294 
-0.109771 0.291993 -0.123992 
-0.053622 0.106932 0.003335 
-0.154250 0.286905 -0.051130 
-0.092828 0.191054 0.047173 
-0.051943 -0.242729 -0.127021 
-0.000843 0.191984 -0.104682 
-0.191558 0.334903 -0.010378 
0.167989 0.314879 0.027011 
-0.052400 0.129667 -0.021513 
0.141527 0.288437 0.081724 
-0.033925 0.355287 -0.201350 
-0.149293 0.279225 0.051111 
0.047616 0.097855 0.009032 
0.157381 0.315537 0.087341 
0.101748 -0.251850 0.061150 
-0.022045 -0.172639 -0.000158 
0.044323 0.130773 -0.051338 
-0.119693 0.284194 0.092700 
0.054736 0.255648 0.132563 
-0.169847 0.313814 0.056347 
0.001697 -0.195313 0.027565 
-0.118378 0.280940 -0.105927 
-0.152934 0.286749 0.002133 
0.012862 0.113010 0.044456 
-0.071803 -0.251879 0.010775 
-0.126352 0.251206 -0.061911 
-0.044111 0.361010 0.193802 
-0.012622 0.133929 0.057916 
0.018625 0.165621 -0.076557 
-0.090108 0.204746 -0.067239 
0.063856 0.165279 0.061323 
0.114845 0.317755 -0.127920 
0.022191 -0.225062 -0.082147 
0.122849 0.261228 0.080395 
0.023388 0.343712 0.195819 
-0.023295 0.218239 0.108573 
0.170761 0.341784 0.096291 
-0.124410 0.228149 0.023760 
0.084065 0.322059 -0.163655 
-0.088255 0.180758 -0.042332 
0.111674 -0.231895 0.005382 
0.139102 0.280697 0.076390 
-0.111797 0.268860 -0.102213 
0.023811 -0.225743 0.084460 
0.069369 0.283863 -0.144889 
0.031290 0.094256 0.034246 
-0.028188 0.096193 -0.021697 
-0.018574 0.305514 0.163368 
-0.178675 0.356755 0.100622 
0.031640 -0.251879 -0.057775 
-0.092442 -0.251734 -0.086203 
0.025099 0.124306 -0.047045 
0.098656 0.236881 0.072541 
0.012134 0.308864 0.175499 
0.037777 -0.218204 -0.044405 
0.084323 0.174757 -0.003511 
-0.022233 -0.148947 0.001911 
-0.193774 0.355149 -0.021238 
-0.043010 0.263845 0.142056 
-0.039545 -0.217079 -0.036654 
0.081992 0.204247 0.076477 
-0.048314 0.298945 -0.152955 
0.045350 0.174378 -0.070904 
0.081373 -0.251797 0.091365 
-0.149254 0.365221 -0.141186 
0.185306 0.333731 -0.046824 
0.069069 0.346290 0.176370 
0.086624 0.365225 -0.186594 
0.002124 0.149260 -0.068699 
-0.072353 -0.222363 0.017990 
-0.100827 0.261803 0.107205 
-0.060423 0.287599 0.151299 
-0.125517 0.264901 0.061079 
0.026606 0.110014 -0.048751 
0.076648 -0.251879 0.062264 
0.025065 0.283651 -0.158535 
0.105204 -0.251132 -0.082513 
-0.036092 0.075799 0.000639 
-0.081654 0.217400 -0.088098 
0.111001 0.221787 -0.022309 
0.123421 0.315193 0.130733 
-0.124698 0.245423 0.027437 
-0.055543 0.346556 0.181261 
0.028653 0.150071 0.074022 
-0.188304 0.346945 -0.023953 
0.186672 0.341870 -0.002305 
-0.120540 -0.234630 0.021148 
0.122259 0.236856 0.006613 
-0.125585 0.286662 -0.087212 
0.110198 0.318571 0.144653 
0.129166 0.233844 -0.015815 
0.186893 0.332834 0.037324 
0.145539 0.356876 -0.131344 
0.040032 0.245721 -0.131406 
-0.006778 0.085085 -0.023640 
0.087033 -0.251747 0.091532 
-0.167930 0.365014 -0.114075 
0.072708 0.303864 0.146350 
0.054737 0.254360 -0.121372 
-0.153649 0.328115 0.090360 
0.031059 0.156218 0.077035 
0.133008 0.273925 -0.078740 
-0.058315 0.350330 -0.182840 
-0.190339 0.364632 -0.066849 
0.048880 0.146310 -0.045698 
0.016696 0.321704 0.183006 
-0.048582 -0.251872 0.101319 
0.147967 0.325562 -0.112905 
0.151702 0.345002 -0.127230 
0.090119 0.176417 -0.030864 
-0.028064 0.109517 -0.034004 
-0.098325 0.343185 -0.159644 
-0.022566 0.131069 -0.052898 
-0.148257 0.285721 0.034947 
0.137309 0.287057 0.067804 
0.076879 -0.235987 -0.101482 
0.162985 0.307497 0.063944 
-0.081539 -0.251879 0.045518 
0.091377 0.279928 0.129191 
0.120486 0.249299 0.070394 
-0.008827 0.338829 -0.184619 
-0.132972 0.247279 -0.038063 
-0.038882 -0.251879 0.059211 
-0.172011 0.354539 0.090903 
-0.130655 0.301087 -0.110563 
0.007022 0.154132 -0.081505 
0.060577 0.227291 -0.110634 
-0.033666 0.129531 -0.058022 
-0.024099 0.273997 0.143140 
-0.010124 0.155297 0.081888 
-0.160698 0.364183 -0.133422 
-0.074650 -0.251879 0.047550 
0.002338 -0.227737 0.095527 
-0.034287 0.349930 -0.188578 
0.093301 0.211824 0.070145 
0.096736 0.264815 -0.100566 
-0.075451 0.306500 0.157315 
0.157548 0.279471 0.011389 
0.150638 0.328950 0.112814 
-0.042547 -0.251879 -0.049928 
0.068059 0.151659 0.017236 
-0.093255 -0.227466 -0.015246 
-0.168532 0.335981 -0.093006 
-0.167248 0.352974 0.114722 
0.043567 -0.220457 -0.051038 
0.050490 0.333018 -0.174078 
0.040891 0.365038 0.198970 
-0.092494 0.190600 -0.047214 
-0.042644 -0.218568 -0.041813 
-0.138892 0.262122 0.049265 
-0.196421 0.359017 0.019840 
0.099920 -0.251879 0.023793 
0.068777 0.299321 0.145178 
0.091889 -0.227502 0.022631 
-0.054693 0.135731 -0.025605 
0.146107 0.290091 -0.051740 
0.024937 0.035654 0.001126 
0.188166 0.336945 0.043305 
0.082877 -0.229646 0.061179 
0.017438 0.085134 -0.018191 
0.137187 0.267800 0.034135 
0.122057 0.250103 -0.046296 
-0.113766 0.223247 0.008879 
-0.025727 -0.223815 0.075992 
-0.172432 0.325936 -0.039591 
0.119643 0.362579 0.160107 
-0.079376 0.302935 -0.152914 
0.082078 0.213071 -0.070009 
0.121937 0.345550 -0.144337 
0.072621 0.228207 -0.091920 
-0.009171 -0.009719 -0.022433 
-0.140114 0.344829 0.126113 
0.071943 0.302994 -0.156588 
0.040262 0.147587 0.054433 
0.042027 0.117177 0.024968 
0.031990 0.146922 0.059202 
0.071551 0.364115 0.196216 
0.108765 0.198701 0.000202 
-0.139397 0.252071 0.022696 
0.106419 0.210874 -0.005142 
0.135361 0.258211 -0.006207 
0.064212 0.160993 -0.040569 
0.131105 0.267009 -0.073595 
-0.045700 -0.251879 0.076024 
0.040226 -0.229787 -0.095427 
-0.002025 0.263857 -0.148406 
0.067197 0.155792 -0.048390 
0.032928 -0.251621 0.124733 
0.016266 0.286865 -0.161661 
-0.073468 0.341092 -0.171102 
0.036570 0.258827 0.130866 
-0.195939 0.356766 -0.003300 
-0.072737 0.156509 0.008113 
-0.139748 0.294552 -0.091735 
-0.040312 0.115125 0.025330 
-0.068785 0.356764 0.183496 
0.047034 -0.251879 0.003454 
0.108730 -0.233312 0.044055 
-0.060524 -0.251879 -0.033697 
-0.006959 0.261971 -0.137631 
0.040398 -0.251851 0.111592 
-0.009929 0.275650 0.155303 
-0.082088 0.155650 0.010249 
0.099451 0.184219 0.010252 
0.125283 0.258396 -0.051932 
-0.124239 0.308118 0.123912 
0.092236 -0.251324 0.095818 
-0.029106 -0.221459 0.064779 
0.061939 0.191912 -0.084348 
0.102059 -0.234927 -0.069552 
0.003658 -0.251879 -0.085376 
-0.036989 0.143017 -0.053317 
-0.002078 0.155011 -0.072239 
-0.186520 0.348953 -0.041454 
-0.076198 0.363561 -0.194342 
0.112591 0.242236 0.055953 
0.105554 0.360755 -0.178460 
-0.094325 0.249885 -0.103326 
-0.131410 0.249981 -0.048167 
-0.016288 -0.047703 -0.017234 
-0.142953 0.294818 -0.067030 
0.060948 0.179052 -0.062132 
-0.133918 0.241870 -0.017201 
-0.065459 0.172878 -0.066235 
0.005320 0.280586 -0.158545 
0.094665 0.250666 -0.103662 
0.052575 -0.242678 0.126751 
0.158843 0.309779 0.051666 
0.125274 0.276371 0.076156 
0.146260 0.341224 -0.130006 
0.144769 0.333126 0.109171 
0.135284 0.258797 0.053107 
0.052470 0.248722 -0.128923 
-0.006863 0.095332 -0.034329 
0.075033 0.364895 -0.187991 
-0.077039 0.294579 0.137645 
-0.054278 0.189828 -0.087982 
0.137745 0.264231 -0.055886 
-0.003417 -0.080428 -0.023007 
-0.039067 0.107522 0.037391 
-0.027420 0.146005 -0.060834 
0.044523 0.271071 0.136281 
-0.024673 0.097820 -0.027086 
0.065047 0.234071 -0.112858 
-0.021165 0.168955 0.078017 
-0.090844 -0.251879 0.036504 
-0.013036 0.058834 -0.024681 
0.078221 -0.246301 0.113258 
-0.194952 0.354731 0.059614 
-0.033774 0.231017 -0.113965 
0.080445 -0.249617 -0.110419 
0.043107 0.311777 -0.162635 
-0.017301 -0.214587 -0.041155 
-0.039674 0.278711 -0.142630 
-0.117533 0.308907 0.117941 
-0.154584 0.307938 0.060252 
0.023338 -0.059330 -0.003151 
-0.111127 0.273525 0.092932 
-0.079944 0.333629 0.163082 
0.112804 0.321089 -0.144604 
-0.185565 0.326315 0.019495 
-0.000373 -0.173606 0.022037 
0.009285 -0.251804 -0.120908 
-0.024688 -0.231178 -0.106159 
-0.052586 0.237742 -0.111179 
0.114726 0.282488 0.111230 
-0.170741 0.323787 0.041022 
-0.021985 -0.088821 0.007230 
-0.066350 0.302977 -0.148752 
-0.148123 0.361884 0.133414 
-0.047365 -0.239416 -0.126553 
-0.150547 0.330831 -0.114835 
-0.118746 0.230872 0.003030 
-0.164916 0.294341 0.026534 
0.030651 -0.251571 -0.126468 
0.123265 0.348218 0.157432 
0.104352 0.224188 0.047572 
-0.017380 0.219620 -0.120225 
-0.044594 0.198148 0.098831 
0.099871 0.326216 -0.157549 
-0.145367 0.338446 -0.128460 
0.161830 0.312165 -0.073959 
0.033360 -0.251856 0.110363 
0.080752 0.232438 0.100937 
-0.067304 0.283881 0.135395 
0.110662 0.250299 -0.069477 
-0.167186 0.350469 -0.094434 
-0.040667 0.294854 0.162349 
0.018811 -0.047854 -0.014430 
-0.112916 0.257611 -0.090341 
-0.133362 0.239541 0.007882 
-0.000016 -0.251862 0.118635 
0.172906 0.328642 0.073819 
-0.083875 -0.251879 0.015991 
0.140216 0.310272 -0.091318 
-0.145186 0.349180 -0.138329 
0.096424 0.197089 -0.048172 
-0.019354 0.193040 0.093632 
-0.009582 -0.224428 -0.082061 
-0.090536 0.192416 0.029522 
0.097607 0.214836 0.067299 
0.203875 0.354811 -0.003288 
0.061710 -0.221196 -0.033025 
-0.141291 0.269380 -0.017223 
-0.084339 -0.234407 -0.087496 
0.134798 0.309834 -0.113948 
0.081668 0.310176 -0.156712 
0.073139 -0.233586 -0.093089 
0.049623 -0.215966 0.001505 
0.072400 0.166625 0.052346 
-0.064585 0.235790 -0.103253 
-0.142521 0.312738 -0.107114 
0.078535 0.225279 0.097134 
0.050139 0.137975 -0.036082 
-0.171911 0.359525 -0.097763 
-0.003492 0.286074 0.152506 
-0.072044 -0.234934 0.100350 
0.068135 0.166737 -0.057893 
-0.162684 0.352916 0.121069 
0.098124 0.307975 0.145353 
0.116472 0.318475 0.139576 
