4.939770418851980871e-01 1.868637939667814329e+00 6.119226429342505824e-02
-9.998247537824611619e-02 1.779002702164718341e+00 -6.131538973180539198e-02
4.211939669421226329e-01 1.677996176281546292e+00 2.914481448597521229e-01
9.727803246597932496e-02 6.913448912978611416e-01 6.704037683365411393e-01
5.375494280668730029e-01 1.830520888690434500e+00 1.011115652601346504e-02
8.897644643674759157e-01 8.185604691631663821e-01 6.940111863949709470e-01
6.121089835351944952e-02 9.201577353691801076e-01 5.730037527772295913e-01
2.279406226933987645e-01 1.894305342100865097e+00 6.486927843438192731e-01
2.395963915590008098e-01 8.819043640892362257e-01 6.603838221959386079e-01
3.572996568953126229e-01 1.873675936710684775e+00 2.386773953183460861e-01
6.738768056986480515e-01 1.459520372430357371e+00 7.620205438942337928e-01
7.086406464007285466e-01 1.904481815986013071e+00 3.227879916687405037e-01
2.866163428170689365e-01 8.139440041649387281e-01 5.159158552442377754e-01
1.113540753574751019e+00 1.770484183353947971e+00 4.233156027830027313e-01
7.106564326651237939e-01 1.481858542499051357e+00 7.148421654515102475e-01
8.863078871028332584e-01 7.479170315885188547e-01 6.376772246536153155e-01
7.944868303079900551e-01 5.560107769014410728e-01 4.557894452242220451e-01
4.782394286393309990e-01 1.946514704269468377e+00 8.441429853545139306e-01
1.272246684610692791e-01 5.827227598546169673e-01 6.932802275376168666e-01
5.442405270309275123e-01 1.393843034039699891e+00 8.031833078206327414e-01
6.498979286757559093e-01 1.158726797230900107e+00 4.633514445331662346e-01
2.735252299396362385e-02 5.038385947203316562e-01 5.024424713998520975e-01
7.213542313961945895e-01 8.971232808934616054e-01 5.460689632879800470e-01
6.420468932958952601e-01 2.070990018164430069e+00 4.973956237203479569e-01
5.327966522513237768e-01 2.092058651259809388e+00 6.778640114703162745e-01
-1.202102594746609077e-01 1.918484733102090667e+00 1.152857227571404408e-01
8.940546432033754654e-01 1.617376307847238293e+00 5.426925642332958155e-01
6.643018653342659396e-01 1.856518474641627225e+00 1.781401312840762419e-01
-9.811357490621785971e-03 1.795831123246914407e+00 9.475393950531418863e-02
7.902070669898934030e-01 1.913373548947943759e+00 6.692150663124074583e-01
4.841870104242723682e-01 1.807639930413525775e+00 -3.406329553783504771e-03
4.761551078159376171e-01 1.063196825090162445e+00 1.059690335345139234e+00
2.324756187564215315e-01 1.878644401268647846e+00 4.339865334968313615e-01
7.058987322823481181e-01 1.665257567713788411e+00 3.090885710191815239e-01
1.080198837362454922e-01 1.824666409159411140e+00 4.966397961837195618e-01
7.654778234204496767e-01 1.335273476694560646e+00 6.064590376151508533e-01
1.030757895796808876e-01 5.064313309131609486e-01 6.598984863512842303e-01
7.701389573455120763e-01 5.650906069966283862e-01 7.804442300841281099e-01
8.036833937753514734e-01 1.249843653075078720e+00 4.887279788696640148e-01
3.503435885111031434e-01 1.588424084866820518e+00 8.171375589537199779e-01
8.653028488094338666e-02 9.793414180968048610e-01 5.712290184788157976e-01
9.218440742728689630e-01 1.055631277267327084e+00 5.116764453362954157e-01
2.766339652616055522e-01 8.290061381002553631e-01 6.346003518162874890e-01
3.885828775209690944e-01 1.835275677103124892e+00 1.568695256011780614e-01
3.000143368031221724e-01 2.142698996053065574e+00 1.584703365932011998e-01
6.879686943881763161e-01 1.727818642004876448e+00 8.405493506361934042e-01
-1.574240443183695382e-01 1.745871691046178897e+00 2.343092200749075094e-01
6.791485314995681088e-01 1.936354899398431195e+00 2.751734766175293334e-01
3.197192376153629167e-01 1.162978932412979560e+00 7.323583535661635224e-01
8.047509287941417844e-01 7.012382157197575294e-01 5.706310509845911039e-01
5.607964782668585224e-01 1.726696596236876102e+00 2.358346719678987569e-01
6.864026034203755122e-01 5.687410918994396658e-01 7.762637823666256320e-01
9.241734496635433116e-01 1.610284908185489305e+00 4.748235240305826999e-01
7.514087652331243872e-01 1.146800116920624557e+00 4.265751639881785184e-01
5.286870104369648660e-01 1.174136580626322202e+00 6.456288965192940044e-01
7.845412769625693672e-01 1.835849454884576071e+00 3.818127207776003118e-01
8.356739639035107858e-01 7.169376592224627753e-01 7.566253130052693621e-01
2.624940359340898199e-01 1.571074228510261905e+00 6.951441770628046246e-01
6.418649448123910917e-01 1.944693790795237076e+00 8.137765426791490064e-01
1.126807895522397907e+00 1.952120300912172146e+00 2.952011483416551174e-01
7.116825177320594831e-01 1.562622192476823768e+00 3.398931067076045309e-01
-4.042461479527859058e-02 1.745041858977620874e+00 6.676023334312153334e-02
8.329304399025871941e-02 6.383182526424835412e-01 6.326533646179386405e-01
1.904096497266013488e-01 1.657955760855136518e+00 3.464410783127286342e-01
1.097735174905284383e-01 8.120805879780248482e-01 6.895326377475747837e-01
7.856090356308781386e-01 1.833005954857357178e+00 7.294017371174346120e-01
-1.096730631794701205e-01 1.773148246305186859e+00 -1.446554124183193624e-01
1.203898478735434097e+00 1.937802228780563185e+00 -2.053253002580923692e-02
6.032902509394549861e-01 1.730018118877006961e+00 2.936967529734451077e-01
6.719314562637618282e-01 1.104977519596683111e+00 4.593227933256817108e-01
5.901664791197372972e-01 1.674060336221609768e+00 3.073033098535236096e-01
7.368408331836878711e-01 9.069808587708234615e-01 6.731339514153029668e-01
8.855031840481630834e-02 1.828408963544000398e+00 1.981207441965213700e-01
-3.090251568498070256e-03 1.704036482915143758e+00 1.294081801475061022e-01
7.522419418544555869e-01 1.848516933239771509e+00 3.308947788502430987e-01
7.352487989085677578e-01 8.137549790929756721e-01 5.164998287024682444e-01
1.452084550227158433e-01 1.096337737746267083e+00 4.204354043966533894e-01
1.082005361529414511e-02 1.826350631705624172e+00 3.667345649483506609e-01
1.723109815318596416e-01 5.092250931811832526e-01 5.035488342532512540e-01
3.756668273788880130e-01 1.312314752943402274e+00 4.430586833586724893e-01
2.608580326898172208e-01 1.314749729889437724e+00 6.825267307369984326e-01
-1.711397468454727289e-01 1.853935329838316326e+00 6.407671558822602975e-03
4.604362912049666523e-01 1.565020336420005043e+00 2.897562306586776160e-01
1.041968042293214491e+00 1.854158750116756016e+00 3.972591807569233469e-01
-1.494202360408145580e-01 1.853807838985693346e+00 1.129992814364523257e-01
6.019070229772890412e-01 1.536525545349231248e+00 3.015216835801783901e-01
1.120437992944676164e+00 1.834747326910869836e+00 4.231155138683297956e-01
1.239025544170158533e+00 1.893498413957583670e+00 9.705511041288339413e-02
8.315327785534228910e-01 5.040669709559149059e-01 6.826746097556308790e-01
7.237750703616606662e-01 2.048160766801587762e+00 2.210512001530053894e-01
8.253196069842877458e-01 1.854169449329538200e+00 6.075714814896377991e-01
7.558315723652474505e-01 1.529001634813903499e+00 6.089284557147265353e-01
3.572361305960520816e-01 1.773725845443204330e+00 3.023026365947193428e-01
1.099096270360596428e+00 1.672586337921342148e+00 2.694934665435094745e-01
4.221579727016354644e-01 1.957558932768823867e+00 1.406599750644876856e-01
9.317802763007876354e-02 5.028274187782816318e-01 4.326067884099339400e-01
3.446551945481590717e-01 1.641214520693381695e+00 2.835131866064808381e-01
1.019474868703821091e+00 1.643138014125743451e+00 4.523939561621781458e-01
5.975961837471243099e-01 1.411987981864285535e+00 3.924273579301063020e-01
9.075564332115594324e-01 8.575478394399700388e-01 5.466597571269493638e-01
3.100793612911243446e-01 1.484361789695728628e+00 4.928333556086086364e-01
5.583659484279758223e-01 1.120074938779230589e+00 7.910357144057680312e-01
5.447457647792072200e-01 2.032591245437481930e+00 7.790161663995052166e-01
5.892380685437329513e-01 1.874236729223737630e+00 8.615082552632828961e-01
1.005312816993177982e-01 1.164268020808923998e+00 5.970445069280618799e-01
8.068288706928788967e-01 1.850549416528489699e+00 4.437978998541588505e-01
3.609569726588470751e-01 2.116685893488293058e+00 1.408539880648038700e-01
6.160154807198392479e-02 5.034552664161885405e-01 3.670051303324182168e-01
2.289973278446786331e-01 8.078562579469193983e-01 6.871232463207030960e-01
-1.229083667489004883e-01 1.912059647710332877e+00 2.202226382054244258e-01
1.424320901574086529e-01 1.649017805486254318e+00 5.324200021665503879e-01
1.042385325077572311e+00 1.739824788024322499e+00 2.119876654074848155e-01
5.413251512809170718e-01 1.164714768650564114e+00 8.416692462029133903e-01
6.886054637704764891e-01 1.320247208864294919e+00 4.601488126439811088e-01
4.455041093350077253e-01 2.096659209876194474e+00 4.040789854636925860e-01
7.122308470386723434e-01 9.846883946585897052e-01 5.070890897240305506e-01
4.413225771022682986e-01 1.894968044723848610e+00 9.137609312323957678e-02
1.215021798351962889e+00 1.870634048913619951e+00 1.951865404320956010e-01
4.936078645592634206e-01 1.703127538217986681e+00 2.843980422618669346e-01
1.180394770883546940e+00 1.917669182963481544e+00 2.993722340250656311e-01
5.987453903794744958e-01 1.645773148918334261e+00 8.609397113919141642e-01
4.913223894934880542e-01 2.069211235110937963e+00 7.237984539213648816e-01
2.811879634537526318e-01 7.337200106368408914e-01 5.694604838360983745e-01
1.266205339262316265e-01 1.218959530717839357e+00 5.528694397826268148e-01
2.381064137153142690e-01 5.016668713275609370e-01 6.394403225373392896e-01
3.084628190227698408e-01 1.293862241491480436e+00 4.675870863717180859e-01
9.135173812263831516e-01 1.812332257391470414e+00 5.463190434989637634e-01
7.148397920258079408e-01 1.977640372428092652e+00 4.562734622455720812e-01
2.151749428367043526e-01 1.824799006405834811e+00 3.809123226396957662e-01
6.311510332096507137e-01 1.808360127678724005e+00 2.738612630888928035e-01
4.859482932153118551e-01 1.413994528849446208e+00 8.042541055811727180e-01
6.131397349502010208e-02 8.181824943219888624e-01 5.882262880484774303e-01
7.024878449457062635e-01 6.759930836570143819e-01 6.244898526721240906e-01
1.048434678654776242e+00 1.865235391343221361e+00 2.244299046282234311e-01
1.086931556839231039e+00 1.885653922794660264e+00 1.832271316261939731e-01
7.258437062106773974e-01 1.753344618345066053e+00 3.413982468496512546e-01
1.028381574206357563e+00 1.660493181339817159e+00 3.132578719092706798e-01
-1.104454555615500544e-01 1.766124507392003773e+00 6.352304837552669170e-02
1.744274638379785802e-01 1.815720848057124970e+00 3.396350363291368302e-01
2.666285943723040175e-01 1.566839073133559967e+00 4.285587683086599098e-01
2.414218989704469687e-01 1.670486059028649883e+00 7.198247109927953247e-01
4.628933288676745361e-01 1.007217080830807854e+00 1.083853468249379448e+00
5.587683098862766817e-01 1.166514816510057617e+00 5.095534029489758865e-01
8.412947756907506180e-01 1.001780683101761937e+00 6.495547092597979688e-01
-1.765687985700092888e-01 1.816348760720128297e+00 1.582216056924987679e-01
5.060144258049065202e-01 1.522091653313204951e+00 8.164406541604856127e-01
8.800967433415022301e-01 9.570019956207160838e-01 5.982888183244561287e-01
3.560768459107566120e-01 1.442988253568644019e+00 4.550765704852174354e-01
-5.656583565075146147e-02 1.893321755065796808e+00 2.699068413624721163e-01
7.270357682468565619e-01 1.387023786819550075e+00 6.559062081566970903e-01
3.196797873497058129e-01 1.013574147423657701e+00 6.121799499213573803e-01
8.580576403053002954e-01 1.678390711671031488e+00 3.752806045343657360e-01
7.326299836270925292e-01 5.053097387366128901e-01 7.600248263065139120e-01
7.058182599567369708e-01 6.584567970435346584e-01 7.482804585369586814e-01
4.469650280243939733e-01 2.088643633369719588e+00 1.695541595097711518e-01
4.279336753687025263e-01 1.180147625333965111e+00 4.961342580545441416e-01
2.706059386847963211e-01 1.936471971525183688e+00 5.079503152644113673e-01
5.485051006510980320e-01 1.713877857672364113e+00 2.982802722348765201e-02
9.173752625026162510e-01 1.075344076523044201e+00 5.754717848183619200e-01
2.700625033530693608e-01 1.713179519616112589e+00 3.245420631388864496e-01
9.389117945711905611e-01 1.806812512321459119e+00 4.318850895661103806e-01
4.403522829540723604e-01 1.778529875782747238e+00 1.469088421607589456e-01
3.223612914598074086e-01 2.011738683358873736e+00 6.071587888752070228e-01
3.797328358165924511e-01 1.456193826491986254e+00 7.696257142942657392e-01
6.114128242254700529e-01 2.092010157565182382e+00 5.750827899937145382e-01
6.818765177792257548e-01 1.866518676816513844e+00 8.042579522834230055e-01
6.342268031086298885e-01 1.955487741054453332e+00 4.337378005488446986e-01
1.072461374065126760e-01 7.543419525967594019e-01 6.483833962826681674e-01
7.052302224069381120e-01 1.907410936571190208e+00 6.323266974075625324e-01
6.432840148757735799e-01 1.402977186934452725e+00 6.169394301826012228e-01
5.605282226703226511e-01 1.521125329232350110e+00 7.818586250589429909e-01
4.487215894968284990e-01 1.344027748525432386e+00 7.924813673558033233e-01
7.006565272330734784e-01 1.945311555949796656e+00 6.916121688456611238e-01
1.586399996222928044e-01 8.950402581150191939e-01 5.018454685632143253e-01
7.955240764604586401e-01 1.699681752312841576e+00 4.985424344392808127e-01
3.225724360647128641e-01 1.812217609035886134e+00 5.576734696273306646e-01
7.371154174750026433e-01 1.804616608176927040e+00 4.941507482336612300e-01
6.595350604629012237e-01 1.638844737775686289e+00 6.054270005644055708e-01
7.475742186883277407e-01 1.242365617148038615e+00 6.094548392536434100e-01
5.437602159726310225e-01 1.586369361455870708e+00 6.007317026234615387e-01
4.910241035527957987e-01 1.344501182629323166e+00 4.944216867320292419e-01
7.493149215984239442e-01 1.210260254104065902e+00 5.108387852990987632e-01
4.958133554854162739e-01 1.509436278190682712e+00 6.274850427063003444e-01
2.067058317494285813e-01 1.670442608012344676e+00 5.152878220318439784e-01
4.268680941441064247e-01 2.058739008738350140e+00 2.451335900367155318e-01
6.051974367578124570e-01 1.547589027148569274e+00 4.384970502611034160e-01
4.980747021675571151e-01 1.161002393838133973e+00 8.402046085473857673e-01
8.743405073749518364e-01 1.664852634160626677e+00 4.323949589030272600e-01
4.390979388312243881e-01 1.596008620372948661e+00 8.329132381643924443e-01
4.788201983967190767e-01 1.804043583013714924e+00 2.088108033976489031e-01
6.249840551492172880e-01 1.808522620167782868e+00 4.305910227925636713e-01
4.765719767898766168e-01 1.539301348188098384e+00 5.146764008292541437e-01
3.083056372750124785e-01 1.037916335597453221e+00 6.622432444396710860e-01
5.569510365514201977e-01 1.794422619133499763e+00 8.476708669872070612e-01
6.177570314484871483e-01 1.489698682001802332e+00 7.228442761544364714e-01
4.654945011123919896e-01 1.675913172931634554e+00 8.438571351050532243e-01
7.701479282350151001e-01 1.094919718420421573e+00 4.911823048672462333e-01
7.073505324030892050e-01 1.456208842288076344e+00 5.361765692179942810e-01
3.259255531107085879e-01 1.557566832067376783e+00 5.020116806824701516e-01
4.338831910672934500e-01 1.679628729161891876e+00 7.603919425377958508e-01
7.598910373997859180e-01 1.723332842694077272e+00 5.185452269120873758e-01
4.527832923510998198e-01 1.755810838322306555e+00 7.382071197333277546e-01
6.425690962189180011e-01 1.590237084388412825e+00 6.120153131830630144e-01
5.324541253966169618e-01 1.424234051692749414e+00 4.700747789003483224e-01
7.804727822087808020e-01 1.686880123987611668e+00 4.541494434857981100e-01
1.003267509684310221e-01 9.659189761938116181e-01 5.502575035682457649e-01
6.295170745763342124e-01 1.928905840047387743e+00 2.938629026671800704e-01
5.623027293920966896e-01 1.265534178412738298e+00 5.375657718614512692e-01
1.034415169074462959e+00 1.774014077230970932e+00 2.530730168647375988e-01
-8.836404458700530817e-02 1.997322594147973751e+00 6.837606677335905658e-03
4.026866667541002531e-01 1.737437600101557234e+00 7.917829582934010624e-01
-5.115115629642963402e-02 1.728551330452946067e+00 2.722468710703707107e-01
-1.202527431423586757e-01 1.910353916514513140e+00 1.549412689484364059e-01
5.659597755319000223e-01 1.889231094058904992e+00 6.725448627843402249e-01
8.903870809478305892e-01 9.715734932851500805e-01 5.585320087814567014e-01
2.927411816195435446e-01 1.563393358524665322e+00 5.043330854237493277e-01
4.331488501895019994e-01 1.832390528111491834e+00 5.559356115460434289e-01
6.656642682770538277e-01 1.731627937501731607e+00 8.296677227993258796e-01
4.611328222250601350e-01 1.795192762952372512e+00 4.641873946016461527e-01
6.093338812903471569e-01 2.017244278088877962e+00 2.331697565764180302e-01
9.477321381408004841e-01 1.671206238690174262e+00 5.185076954257992199e-01
2.438011455290309826e-01 1.201343130776378887e+00 5.950563468652791954e-01
6.634505210611407744e-02 5.615691908155039380e-01 4.899463450070404846e-01
1.064305545793226226e+00 1.795395184064835226e+00 3.453179511256818657e-01
5.431107464401093710e-01 1.950815529047865482e+00 8.149536381478705849e-01
2.497445597217541335e-01 5.489749397412041487e-01 6.603470591001634471e-01
7.333599953988413356e-01 5.809438755559089840e-01 7.496108351176151707e-01
3.203713565442922739e-02 1.713069100846629889e+00 2.931589547322397404e-01
7.565268995756116999e-01 1.865011778620749405e+00 6.021860413853143967e-01
6.772708206751595350e-01 1.578885794646511354e+00 7.218078430277909963e-01
3.808218266191296664e-01 1.980785953917069353e+00 5.065835597018446546e-01
4.692455946526937760e-01 1.905494179545985212e+00 2.761066328972539008e-01
5.225892090088474218e-01 1.888346176727407455e+00 1.247320269094283063e-01
5.712322497301819402e-01 1.709819370375272651e+00 7.583212035459818701e-01
5.922547987078584653e-01 1.449997954933340161e+00 4.523224651622457237e-01
5.042386047371002489e-01 1.215405335509926132e+00 7.440275285180428799e-01
5.093339542488032334e-01 1.490463344835500692e+00 7.533855940361535719e-01
6.856845937372452182e-01 1.951105352398100568e+00 6.242484206666873980e-01
5.489410597817382387e-01 1.385550651237981157e+00 5.293784332591673358e-01
7.256122594515647117e-01 2.126270532955931714e+00 2.004271445878896829e-01
8.104915821968715628e-01 7.968870322464398637e-01 5.647248216362661388e-01
2.978951324785171773e-01 1.356309464815178112e+00 5.353173784577374139e-01
9.335983892820415297e-01 1.656387968625156804e+00 4.809619848342725490e-01
6.288417050691647026e-01 1.472590796051584938e+00 7.918950636674375598e-01
5.368465667038438971e-01 1.665608254214485884e+00 6.895872236193860694e-01
8.202410273832260179e-01 1.649701684219284203e+00 4.348004145634883910e-01
1.428423542251399114e-01 1.163918211080355203e+00 6.092039828006516888e-01
5.574277184148442865e-01 1.867370041105908873e+00 5.800650691633275624e-01
1.102436077025559680e+00 2.019541504955996380e+00 1.696718595382274986e-01
8.045109123103942883e-01 9.314408719330884434e-01 5.235456527782069713e-01
3.170229348183565277e-01 1.978241907439452829e+00 6.422658161060408322e-01
1.173821143407803191e+00 1.750026720364061594e+00 2.461228690133627772e-01
4.381282960189510911e-01 1.602668800930270310e+00 5.408783937394718855e-01
5.794559714711505771e-01 2.025936698203921082e+00 3.445036291014353935e-01
4.958780285413405542e-01 1.850349930069616677e+00 7.661265030573809476e-01
5.997714102534298375e-01 1.618297726850874252e+00 8.338067898934842237e-01
5.460026788502393424e-01 1.885249252845060619e+00 5.383977310870327049e-01
5.350837993059024411e-01 1.923732161159299681e+00 2.082379842140295034e-01
6.367921117908038608e-01 1.341458362458483045e+00 4.775566801932873418e-01
1.332603485124349563e-01 1.689350611460619822e+00 4.821988384935702587e-01
3.452783355845114865e-01 1.847280832609051293e+00 7.616128414366554189e-01
4.548145739325119008e-01 1.452733253251896839e+00 5.412250029273755203e-01
6.511952899022749319e-01 1.897019628362138777e+00 7.041522471597911892e-01
5.134612159767922845e-01 1.851312768289358202e+00 8.701328422482681457e-01
3.541197538617996132e-01 1.249515024434046717e+00 5.597145370428200373e-01
6.837407479014495637e-01 1.660965467438989984e+00 4.051224209031469847e-01
7.098907017733583347e-01 1.108385770172859441e+00 4.930447698473814366e-01
7.227363579812958738e-01 8.054877336827142020e-01 6.244027554650606326e-01
6.324613534471034137e-01 1.325601469009072275e+00 5.892932069224972036e-01
5.523480292964116911e-01 1.960186816231216378e+00 3.017266971606917814e-01
4.527003904657366240e-01 1.220652520572344191e+00 4.974304191097602690e-01
2.494776557028689501e-01 8.596610963292817820e-01 6.288960703858099688e-01
5.822875269430373146e-01 1.377062374159371938e+00 6.058693357663766932e-01
4.639691490924127137e-01 1.654148329913233573e+00 3.376311317316915694e-01
4.578775320760248846e-01 1.254319345779270733e+00 7.135709728817289932e-01
6.386021810734848758e-01 1.959853119069079552e+00 6.893862795119904963e-01
4.410563887130805050e-01 1.982938549421902730e+00 5.170221147414095775e-01
6.164683152046183112e-01 1.762982599971736342e+00 8.193723743506131640e-01
1.954322141253180822e-01 1.115558171190263348e+00 5.837918438646467756e-01
1.075541415055955241e+00 1.936049367678477573e+00 2.367129666909094654e-01
-1.260960086967334304e-01 1.850758310394066131e+00 1.905464411705291017e-01
4.916136051577384425e-01 1.690415275427477937e+00 5.991287137218754832e-01
7.386673248911673761e-01 1.444600278632297563e+00 6.210000081990443288e-01
1.648482024872168772e-01 1.823477735097857044e+00 5.151170424753490629e-01
5.876809093554025143e-02 1.678771228560561157e+00 4.336943263791158687e-01
6.103282766307499552e-01 2.052342018582904437e+00 4.395121890086025607e-01
3.893076138699462785e-01 1.938124530169242465e+00 3.840549719736686685e-01
1.210150302198182537e+00 1.900731965028909620e+00 1.841990911043573931e-01
5.831543285238923735e-01 2.089802232821255323e+00 5.078990575575150768e-01
6.419771162229771511e-01 1.517193256349477881e+00 6.353405772330842360e-01
2.224379518909805897e-01 1.108754480899137418e+00 4.882689790300220878e-01
4.311961441190595989e-01 1.705846496853253180e+00 7.165681391611162798e-01
9.138006927065654983e-01 1.666211276477934655e+00 3.583843768604384472e-01
2.657081071544072914e-01 1.072254158110536038e+00 5.962825080795317589e-01
2.552264662699738063e-01 1.126011924223164096e+00 5.057457960566256183e-01
4.431856109130730692e-01 1.956312157327703138e+00 7.506081413691521043e-01
1.171750167497268569e-01 8.497614551500662916e-01 6.369419665322935131e-01
1.525847831001195809e-01 1.819631164889417230e+00 4.394647351233338384e-01
5.906678240198649510e-01 1.774703950399503238e+00 6.622278020601171100e-01
5.010020559768831871e-01 1.738245501785413039e+00 7.565260886271516494e-01
8.767855821481863599e-01 1.124801387676007458e+00 6.079667814794031955e-01
4.172431407563054195e-01 1.426240405752191354e+00 6.289022755501212369e-01
2.585914328299077081e-02 1.775454443350014344e+00 3.303969544383359436e-01
5.818490685471712220e-01 1.997502452322427624e+00 2.231767854908244253e-01
1.157534722497681745e+00 1.833686597091278125e+00 2.515703819400781915e-01
8.722160968070312714e-01 1.757847055815484394e+00 4.645652222220842953e-01
2.090525825584391706e-01 6.420423098465011247e-01 6.231969521182982863e-01
7.524905941380019003e-01 1.197708228975652434e+00 4.570093121930635105e-01
5.746780940873108534e-03 1.832823802451721606e+00 3.388058814252539186e-01
4.032931125732567290e-01 1.520937420305094490e+00 6.838595022904845333e-01
3.319408132732294403e-01 1.815480875749637013e+00 6.792278938602784866e-01
-6.989398704284388586e-02 1.842259741822818375e+00 8.189347865766760659e-02
5.327176473578397742e-01 1.623230604322535076e+00 7.081857760993826023e-01
9.331499494568629149e-02 5.474547879538150807e-01 4.263955616197905307e-01
7.507122480590221469e-01 1.595180795069825797e+00 6.837564241886822103e-01
3.948924038208292409e-01 1.541322396981990694e+00 3.277624311524025558e-01
6.378933529998788154e-01 1.977351680643373300e+00 2.259095608958141543e-01
6.307528811773721600e-02 1.734697729203129812e+00 3.140429311488965869e-01
6.274706780514801574e-01 1.995484195232982927e+00 6.486401861149144743e-01
7.699701635581995829e-01 5.800718370032710292e-01 7.168592558417288263e-01
7.862869553980710302e-01 1.670200206180102009e+00 6.711623735214575781e-01
4.136615300661860006e-01 1.754851876263164190e+00 5.859429755881473412e-01
8.540262678438729216e-01 1.021406707360566823e+00 6.098144184181468752e-01
-4.552037923749030490e-03 1.839696524466791994e+00 2.777141731600395458e-01
3.462720391194366032e-01 1.770309641661921951e+00 5.608516841773059092e-01
7.312329176318334012e-01 1.633899989852129586e+00 4.534351907499800660e-01
6.555860634774671736e-01 1.642320594835471326e+00 4.527934379919857921e-01
-9.738604632052494381e-02 1.776677783435446356e+00 2.769964748571465130e-01
7.310175404781188435e-01 1.319803133376966642e+00 5.941940551537705506e-01
6.853477410192531094e-01 1.142413492595987901e+00 5.044668421467661812e-01
4.374982228951302954e-01 1.485951636692363742e+00 4.609867569226113737e-01
4.025515861328986533e-01 2.067284248185506712e+00 5.167140574540636244e-01
3.349620961204143876e-01 1.685083898900842536e+00 5.709520749555971886e-01
1.318351666753163620e-01 5.531948777462751821e-01 5.138381211033176132e-01
5.262178448742517167e-01 1.427228086113668137e+00 6.832017071004323761e-01
4.891544763369330973e-01 1.838942893559176284e+00 1.834861890017880359e-01
2.049392039810455923e-01 5.651934137664533786e-01 6.125347493160200329e-01
6.416872707075910176e-01 1.544902578514849800e+00 4.503803562330913612e-01
5.785642694881237835e-01 1.727285985291175052e+00 4.534066087200182560e-01
4.699060531585542710e-01 1.301555622075773799e+00 6.933861978786541869e-01
4.249821911952788023e-01 1.605047881931871423e+00 5.408620502762810922e-01
3.140324085574142110e-01 1.203216422304420830e+00 5.571717709779535621e-01
8.636724981514632971e-01 7.316028242718088936e-01 6.906516531312834051e-01
3.960403092698844274e-01 1.336120483075442511e+00 6.555867538850796983e-01
5.796970637908854806e-01 1.899720353423573149e+00 1.671469282089256270e-01
2.729981465187074630e-01 1.730794804832853639e+00 6.244619078831969983e-01
5.063334496016752562e-01 1.872907483315976007e+00 3.085439572447871148e-01
3.185072013684898673e-01 1.796558534771330651e+00 4.212095723076454412e-01
1.948413234219638079e-01 6.750179396715256797e-01 5.565976545094561967e-01
-2.941470481192487441e-02 5.256251157859859191e-01 5.307557481562978907e-01
5.430423674834002901e-01 2.064782982652933363e+00 3.913065052028950053e-01
6.853533693286718576e-01 1.055966674022237539e+00 5.338513049846824732e-01
2.579468936239261989e-01 1.894312838755350503e+00 4.121152205643791033e-01
4.955512357745801566e-01 1.939065549087302553e+00 8.493800954451542484e-01
3.854339080503346171e-01 2.016942037668887799e+00 7.094832443382319553e-01
2.239419086756034849e-01 8.880413084306900684e-01 5.330481327153926419e-01
8.534488950359918613e-01 8.628491606535788616e-01 5.922732658162286334e-01
1.120156011767328152e+00 1.832352701307555565e+00 4.086981020648582374e-01
5.015977184019656532e-01 1.481042134169270330e+00 6.830627231020789392e-01
7.015806035879804670e-01 1.785875885368229943e+00 7.766061444463061569e-01
8.116381479190567516e-01 1.170586430582021498e+00 6.360419520953670691e-01
1.094167646969133934e+00 2.061125535963853395e+00 1.549657910291659668e-01
3.499177937046750175e-01 1.708268133308581183e+00 3.089856284374106199e-01
6.960610713648053283e-01 1.335198912929744131e+00 4.934011109505275217e-01
6.978962802063312099e-01 1.194868861481270805e+00 7.225866353830314726e-01
6.803699169155253967e-01 1.068720459508328169e+00 5.750458628132537608e-01
6.642628779104527981e-01 2.118034482212027392e+00 1.543442226626624558e-01
2.662753281966213637e-01 9.001252503514061143e-01 5.505150609807727413e-01
3.860950078485038128e-01 1.511729815526997811e+00 7.159363046722997392e-01
5.255216781181472063e-01 2.053619719196947635e+00 3.408799661570616202e-01
6.165592840004378017e-01 1.933102211056570541e+00 5.342650430717998944e-01
6.869053128962591126e-01 1.929732171435826205e+00 4.308967923773676656e-01
2.140965045930719457e-01 1.719420680588730876e+00 6.056832270944563223e-01
4.573182058742105704e-01 1.648498284370321754e+00 3.680786444693064929e-01
1.239843055618335965e-01 6.625257179488711623e-01 5.743523406823733968e-01
5.032755870426154354e-01 1.654843957440606639e+00 7.723574672354223125e-01
1.114130604963354809e+00 1.750299934955400705e+00 2.226581884162290859e-01
6.943198612187689855e-01 1.645276205047602636e+00 7.311256113036361803e-01
1.023453712573466845e+00 1.847850983144838866e+00 2.618048163638561077e-01
6.217624731704932683e-01 1.436921579433865892e+00 4.228074065857768682e-01
1.468236406907516001e-01 1.071431611817474483e+00 6.430753164392932764e-01
6.791579109443611761e-01 1.220538066379220909e+00 6.293623504032037630e-01
5.582959195052682455e-01 1.987208844580264033e+00 2.394395531276163336e-01
1.085820890654796589e+00 1.707285183601039646e+00 2.473342070338855336e-01
1.749418379237860366e-01 1.175193197724866634e+00 5.165681083139916918e-01
2.483852430730849603e-01 6.065040925516593795e-01 6.502333429193536407e-01
5.048332396660563104e-01 1.154108089172328544e+00 7.344166970326519994e-01
3.922279876450701641e-01 1.990022364918464737e+00 4.326809433221052714e-01
4.134004197705929418e-01 1.871513392299137157e+00 8.309869760287351692e-01
-3.824943935343039225e-02 5.161201503510550737e-01 5.353790082280993623e-01
6.903213153826349702e-01 1.685307855436597668e+00 3.904240753177429246e-01
7.768179873993635853e-01 1.296564337621045393e+00 5.249317592865045956e-01
5.346852508568168405e-01 1.706256960105279719e+00 4.511531173452977272e-01
7.428777282089490397e-01 5.104230609345603575e-01 6.850650858979765445e-01
3.571176654755967572e-01 1.902563772743670389e+00 5.159342939350135548e-01
7.002072356197431846e-01 1.433107402409904862e+00 4.982560080729938612e-01
4.259112762399973606e-01 1.487517832495109271e+00 6.734056054487258525e-01
2.832224822743006909e-01 1.321766706208541420e+00 5.511999284844775193e-01
3.819213098373882564e-01 1.291184707208101301e+00 4.870985336995188320e-01
3.347336837684324884e-01 1.950251242977506516e+00 4.164762983987819744e-01
3.480062099353673499e-01 1.093825099038766790e+00 6.217967512941848796e-01
2.800266304217295943e-01 1.202891829908442123e+00 6.574777430941807221e-01
7.995398393365275025e-01 1.855395626266425957e+00 4.477160437645733015e-01
5.023962089190990854e-01 1.964900840372875601e+00 2.242545622194533905e-01
6.480966205901076416e-01 1.198494533536848650e+00 5.375801095391856688e-01
4.408355379714640199e-01 1.903477971928849266e+00 5.021162774486955804e-01
5.317912303802564411e-01 1.721282164944312187e+00 2.148794618066804940e-01
2.622175156100600146e-01 1.234317595066986240e+00 4.997417849005367785e-01
6.355014933332893134e-01 2.066739674410172256e+00 2.521332572761529889e-01
1.405580387706232282e-01 8.892077623727935309e-01 4.763025022226451410e-01
-8.286941869157904428e-02 1.838316564865429159e+00 2.438945476598088913e-01
3.251523234175232036e-01 1.605575306694905668e+00 6.271391888665387437e-01
3.080159227028341773e-01 1.838214667847862804e+00 3.167964904525385483e-01
5.588886802676261700e-01 1.633433157523222379e+00 3.029612184670913422e-01
8.181301906405739066e-01 1.770860060861019658e+00 4.349048658154816005e-01
4.746579267270522040e-01 1.200026976506385790e+00 5.003707131726722324e-01
2.442454033308992800e-01 7.177966673800886266e-01 6.613967600125081336e-01
9.928286851469014795e-02 5.480047459136804244e-01 4.298992801888200654e-01
1.179012317224454875e-01 6.938928706524633006e-01 5.483185520241100619e-01
1.020477551576220998e-01 1.790084107956127601e+00 5.036983517309807645e-01
3.089947646238405676e-01 1.906639807941735709e+00 6.579210758563802663e-01
5.571328911455252220e-01 1.698109841133205844e+00 1.019424631192145103e-01
4.056937499504590372e-01 1.618326671947245776e+00 4.483503033644758995e-01
1.887383573878173015e-01 1.694170487773247968e+00 3.535441782336987693e-01
6.598825636691004748e-01 1.139960774113149444e+00 5.124216857830623528e-01
5.426322631903642835e-01 1.790129506613732158e+00 2.733782650284262150e-01
3.935793700100936876e-01 1.611640308137760602e+00 4.756843068434842836e-01
7.458751040076515570e-01 9.460250344900638098e-01 6.461030053845533416e-01
1.226447812753831412e-01 6.549656866714044234e-01 5.861203572104078940e-01
3.302041779513698039e-01 1.794671275100852004e+00 3.594153309194179080e-01
3.693308116846613087e-01 1.614084508854951583e+00 5.759480986224205790e-01
1.043953907229280720e+00 1.796051959754989102e+00 3.414437352870841602e-01
6.795774180618096016e-01 1.436288399761438406e+00 5.450313694800272835e-01
3.003215918076788116e-01 1.829397323355768101e+00 5.232544925120310442e-01
3.289391514672901362e-01 1.855066713094472686e+00 3.130351539074645029e-01
-2.540781673469127977e-02 1.843870788377447667e+00 1.530793111013611929e-01
2.403399636193767064e-01 1.870044147361777265e+00 4.255179254487527762e-01
8.695642872366667886e-01 5.232992301191023987e-01 6.604215325502484912e-01
5.680684013386639863e-01 1.924545353098609413e+00 3.380563806176442032e-01
4.805170887111426259e-01 1.337400306790245796e+00 4.416872873007653411e-01
5.667353308668857670e-01 1.537451294757217868e+00 6.398054032730320362e-01
8.526996257812843316e-01 6.568924953723207505e-01 6.811518317035190062e-01
7.692780805147790835e-01 1.722523473991715681e+00 4.084545737854149428e-01
4.504404401733483887e-01 1.614534834364679927e+00 6.966348519963385666e-01
5.088077562464702330e-01 1.369485974393612526e+00 5.793767462819512382e-01
2.239915397232551397e-01 5.157594658467883342e-01 6.819082233530078252e-01
2.043516251149711804e-01 9.479510362094820675e-01 6.050072942568545109e-01
1.278280093249419824e-01 9.007836273856721920e-01 5.065984474877398558e-01
-8.355906777917532224e-02 1.720912689340006851e+00 8.977820721872264986e-02
6.818167782471372673e-01 2.109447043645426234e+00 1.713086603742354219e-01
4.862101280199921938e-01 1.819229826351522972e+00 4.927938540326596284e-01
4.551534894675318688e-01 1.772406074681752042e+00 4.534408252513397741e-01
4.088383602584656495e-01 1.584996162248859974e+00 4.760034178639769298e-01
1.348118255746656446e-01 1.023794906474296385e+00 5.536750494546665013e-01
9.582935421982406998e-01 1.739890684369110430e+00 4.072104161930405475e-01
5.387279770598506490e-01 1.967793314853093944e+00 7.033705111625372375e-01
8.519294551940029825e-01 1.701076157419188606e+00 4.182697350110393675e-01
4.273361426399990837e-01 1.550765230401593531e+00 8.101989865602046148e-01
4.766261227137458256e-01 1.693378345023815124e+00 4.781300695467318729e-01
2.808788745049839441e-01 1.600921463105208664e+00 5.957880635540346859e-01
7.240028514781721158e-01 1.626399784051779651e+00 5.356637949482925265e-01
3.272176966238465878e-01 1.555894886829311874e+00 5.853542936049267453e-01
3.776290789584829666e-01 1.875089278615504007e+00 3.469194142622402666e-01
2.913377733291179217e-01 7.647293802120684880e-01 5.590485277502967865e-01
5.872224193369092182e-01 1.553627189055175162e+00 3.403756066395964286e-01
3.733282674845774807e-01 1.788650070885698717e+00 5.966412152152413828e-01
6.180640050770470628e-01 1.997746039447941824e+00 7.841286278635788420e-01
6.004247675791888339e-01 1.811253745840000429e+00 3.634452033229745860e-01
-4.412994806491898903e-02 1.938678019324747703e+00 -7.394980172285126052e-03
3.078843422337771418e-01 1.210734739401929216e+00 6.537394111197825097e-01
7.794922242317839922e-01 1.187441234260125045e+00 5.873559506781156347e-01
-8.562527902786642997e-02 1.985651535973113058e+00 2.482966273984565930e-02
5.699682240521745102e-01 1.982834449401509325e+00 6.853340280614614866e-01
3.553829572857361008e-01 1.537010131051578465e+00 5.719911959517063327e-01
3.753610582978620380e-01 1.441270761213771845e+00 5.324560837651495238e-01
4.459649136563956784e-01 1.702571061306989098e+00 4.091264682517077311e-01
4.593683039991910411e-01 1.683064003505155393e+00 3.279752814224057289e-01
4.146271887774637399e-01 1.609343898448107879e+00 5.335299380442781736e-01
8.762036723740377342e-01 9.778972427389237554e-01 5.554466115624627776e-01
1.015220011415572277e+00 1.694538482392665024e+00 3.192659445626149228e-01
4.802472392564682835e-01 1.232411216255413500e+00 4.665603045884827438e-01
1.095224359992580609e+00 1.805035840781572753e+00 2.961818479176401286e-01
4.801505662861395018e-01 1.462601115427162757e+00 7.524186487650605937e-01
7.911922510228207583e-01 1.796973810955282858e+00 6.465228889045600003e-01
9.824925127687572646e-01 1.755146365198118952e+00 4.495740733696014235e-01
3.460546598294104159e-01 1.559645220078256456e+00 7.395169874288964884e-01
4.615991941244804719e-01 1.915448797521486890e+00 2.227395849458884136e-01
3.926092909315284096e-01 1.206849325087505864e+00 6.993656725198404978e-01
1.128289194665417661e+00 1.784473220702175178e+00 4.207387559739722560e-01
4.602712079225400599e-01 1.508062411039342798e+00 7.549407742160654244e-01
5.870543117490770735e-01 1.346527891933649634e+00 5.640137819955470810e-01
8.493882608891912822e-01 1.112132994196054270e+00 5.143119845528167922e-01
-3.258451363845149551e-02 1.712060047435062682e+00 1.712331027304940800e-01
7.055526379085897970e-01 1.832297492058591493e+00 3.943724260692754724e-01
5.567299882718138582e-01 2.103096601061175797e+00 4.733372003607470013e-01
6.224174323422061450e-01 1.366773708951791955e+00 6.457829337338323317e-01
4.552217902195536681e-01 1.775438464909040670e+00 5.404441305467593271e-01
6.038198692232265019e-01 1.885968174696825317e+00 3.200317269176080615e-01
9.521461192087469216e-01 1.713119635769360993e+00 5.077536739031756063e-01
3.479032873462806208e-01 1.840648854075618068e+00 4.892609791616694404e-01
2.583001612183772888e-01 1.239002952212212350e+00 5.269664726047260661e-01
5.697523552712352446e-01 1.186480164517690117e+00 7.415059211807653039e-01
6.964080478229014437e-01 5.748661797213570068e-01 6.680970660594585109e-01
5.039685124609930567e-01 1.436043897780228562e+00 4.868741126284814591e-01
3.030021950106128736e-01 1.184581456091783114e+00 6.439210603950555889e-01
4.542730792816990215e-01 1.255459392873851998e+00 5.978109133343625370e-01
-4.389834882573440122e-02 1.934608630756254888e+00 4.125493232901367158e-02
4.648198923231749990e-01 2.077364353620962945e+00 3.871125157110965054e-01
5.871451286646686141e-01 1.382462656111169252e+00 7.855650845584827291e-01
5.025625514956238993e-01 1.234424982027932716e+00 7.503242857757885798e-01
5.450068066059409189e-01 1.518844671062291374e+00 7.893388056556502885e-01
2.815785224043630963e-01 1.346699037399331944e+00 5.865991518645969904e-01
4.928826954981950781e-01 1.789471796616483701e+00 8.258920476859208382e-01
8.005128187666877837e-01 7.478688284161094657e-01 7.262931966928818373e-01
7.944593837093402167e-01 1.762588230812671464e+00 4.425516266162924373e-01
3.525323326069813579e-01 1.346745002752426812e+00 7.348084124068756662e-01
4.871299769166584914e-01 2.015063441195160010e+00 3.125646327711120165e-01
5.377083575357933798e-01 1.427789670328246441e+00 6.675449338694550150e-01
6.032027444777049441e-01 1.230301737613574309e+00 4.703460614754493285e-01
-1.177405127378479133e-01 1.886455773833249472e+00 4.295147918759245620e-02
9.316267361330453634e-01 1.628522277183303002e+00 4.512528826323257691e-01
7.860262944480017611e-01 1.117153591157550085e+00 4.927537507565445951e-01
4.035922400050060421e-01 1.918581133294439800e+00 7.632241118537959057e-01
5.843058205465535559e-01 1.692604745479913353e+00 6.921453643051762583e-01
6.068505327347196721e-01 2.016693858381823468e+00 6.927782775682105321e-01
7.159377283033557804e-01 1.950127525963978758e+00 5.636541565418753397e-01
5.995860691869751014e-01 1.409428435465592599e+00 7.578019628726313517e-01
5.563148060424100150e-01 1.706078729437169761e+00 9.970130301366320058e-02
8.296947992737938593e-01 6.891292866064356870e-01 6.801707528486293786e-01
3.174116526960013562e-01 1.591947555276337578e+00 7.843910788004309076e-01
2.981943067152411642e-01 1.061001005641095229e+00 5.537664218591613619e-01
4.232246472943546056e-01 1.744102909831970694e+00 3.801106668591570648e-01
5.364302612062953335e-01 2.108220286988583325e+00 4.590187986340719117e-01
5.379595937929305682e-01 1.840100127371863792e+00 4.956099580342971933e-01
4.677783836096128800e-01 1.585517997566469717e+00 7.755373899995690046e-01
1.194514761943359371e+00 1.973041909232805091e+00 8.267857491385388613e-02
5.164584315183015084e-01 1.728848187182669971e+00 2.375661957559975779e-01
5.941429040084856839e-01 2.040307854067668458e+00 6.341258576575852235e-01
3.716018660171707122e-01 1.331089283310308513e+00 5.826548767021966224e-01
4.461900197026750226e-01 1.675251002100929698e+00 6.611438174541934831e-01
3.124945375059545727e-01 1.079832753946642798e+00 5.292012100004426234e-01
6.100462043722524319e-01 1.979641929101348063e+00 8.101023925444426066e-01
3.135540239106547888e-01 1.803986645954346324e+00 4.987871209646750348e-01
1.156024755200274257e+00 1.941790281415363140e+00 1.457161351127349569e-01
3.106351876019644020e-01 1.970851267668149776e+00 6.407725821343650541e-01
5.805701084809643531e-01 1.432856780597576263e+00 5.231657065434078824e-01
6.693949615113815588e-01 1.809308597028399301e+00 7.341095910155690518e-01
4.883180448507219440e-01 1.570167382705422332e+00 6.117081962611463641e-01
4.722400635788582823e-01 1.743935523253295594e+00 2.994388798691148823e-01
2.795267514357585581e-01 1.160728633264745735e+00 6.284062861237182940e-01
1.346191499284864479e-01 1.689409516304385406e+00 5.183291372104263939e-01
4.359150216058300664e-01 1.264023034269702528e+00 7.402153764504644240e-01
2.112910606877286268e-01 5.858867828251990151e-01 6.986579316424819108e-01
4.612945245075336098e-01 1.875569488298326037e+00 6.141469416954292715e-01
8.083957373043008099e-01 5.644338289688560772e-01 6.152033261649250129e-01
3.487544517833286450e-01 1.466305870113540077e+00 6.650457542047523152e-01
2.158145211648573314e-01 8.871774827811316211e-01 6.263635270941214639e-01
1.992560662517558479e-01 5.526768912165433978e-01 6.988488134474004632e-01
4.652712389915992786e-01 1.899471433152974287e+00 4.725594253767275710e-01
6.307618903638400054e-01 1.822639847094001508e+00 6.137686172535914420e-01
4.388090308056805666e-01 1.727616464433633814e+00 6.927080744567448711e-01
1.062741791681830472e-01 1.652722409616517840e+00 3.976094446786874181e-01
5.000432052727336041e-01 1.510943356523681835e+00 5.032607482973254776e-01
4.475042982622993160e-01 1.793909592218303040e+00 8.324822545831189746e-01
2.463392633736410930e-01 1.088329590377585587e+00 5.321474642285179968e-01
2.829542072655278906e-01 1.676410210271679357e+00 3.856638699474466137e-01
1.949041705441143524e-01 9.705286885225196114e-01 4.611231219585971708e-01
5.413490381198239332e-01 1.849534786516915164e+00 6.536227074432425788e-01
2.945513230468360666e-01 1.780283736505230419e+00 7.220025640042273540e-01
4.025749260829069032e-01 1.862037947122369141e+00 8.392501196417192499e-01
6.876262212311100575e-01 1.375071448940032415e+00 6.542074046084682681e-01
4.075453102202116762e-01 1.276546866105818578e+00 4.811006349779936020e-01
5.484628041960030176e-01 1.675767573197010973e+00 6.751427195706682927e-01
6.344446148591887935e-01 1.170104047059682184e+00 5.396050135439927065e-01
2.915694876901593346e-01 1.655916007695732439e+00 5.243667006402314978e-01
5.749805733167502320e-01 1.267283690056224543e+00 7.664027146329892570e-01
6.595337958573922466e-01 1.789781905991359112e+00 5.596088993704748660e-01
1.099460022727768660e+00 1.980590183239307356e+00 1.877781997043057594e-01
8.084629166927727040e-01 7.190298475953836865e-01 6.323517209337059519e-01
3.868556675998489069e-01 2.094205150395432202e+00 1.877007742404580570e-01
7.692074595990622266e-01 6.490440006881411650e-01 6.935138245657788136e-01
2.216169272588409678e-01 1.241659545658440500e+00 5.496787313798874308e-01
5.613592269571227034e-01 2.052253295371468944e+00 3.173265050264232334e-01
4.927884057131551865e-01 1.685621258433016134e+00 8.781241995062782912e-01
4.706446852975036954e-01 1.347529208359875996e+00 6.461277176609707684e-01
5.890815562380123938e-01 1.435310199803046194e+00 7.703531567529313673e-01
3.714021921445641583e-01 1.470379935972037089e+00 4.698885174490372574e-01
3.926453693623341845e-01 1.940495510566006887e+00 2.011399706117786845e-01
5.799963830392683706e-01 1.668503748808540132e+00 8.633145642376744977e-01
2.425400808064143154e-01 5.994151681168671253e-01 6.113214942590843304e-01
6.412834066239606612e-01 1.541240829786861832e+00 3.368902779884030974e-01
1.069809064668258980e+00 1.714421872156155491e+00 3.014423431836699141e-01
4.672551335827531682e-01 1.970191663571337237e+00 3.113209219423533902e-01
4.835195323049046312e-01 1.706683616701183848e+00 9.787377076140613141e-02
5.970824631001626637e-01 1.564783707614622488e+00 3.190336175181081035e-01
6.913835712091253027e-01 7.517653324504656176e-01 6.771984262323831327e-01
6.579581767197514308e-01 1.597144238554964568e+00 5.049886691239475756e-01
5.411686750653069700e-01 1.944524021603962760e+00 6.692054997152967477e-01
1.821265621654436506e-01 1.136079903289088033e+00 4.513905356467158292e-01
2.917688771071180742e-01 1.972582718518097744e+00 6.207911204720553133e-01
5.665045160494320831e-01 1.264348149790502696e+00 4.256122503836701210e-01
4.630047020718990325e-01 1.660277011529958324e+00 6.036807326162283438e-01
3.312256286627460744e-01 1.110258893443992090e+00 6.831884075798166922e-01
4.444132374587386192e-01 1.522332565844973340e+00 6.093253121122716998e-01
5.328809239082218374e-01 1.752839670387279947e+00 2.226849290458865482e-02
5.855067679841975403e-01 1.734315878089627727e+00 3.423699004870365270e-01
3.994814464142500965e-01 1.575903839370504711e+00 7.264293431456101402e-01
8.481936368597834397e-01 1.793889676448233272e+00 4.871251847672299906e-01
6.772461245421618203e-01 1.664055150633432012e+00 3.535701297636957285e-01
6.567880165832998829e-01 1.922659285467222423e+00 6.474930409331696168e-01
6.661446714431672467e-01 1.787759122457328820e+00 5.454327341823392850e-01
6.069483343933043118e-01 1.428675228961739929e+00 5.258478981349248293e-01
5.899832518598601139e-01 1.827541801486770812e+00 5.465106709491152071e-01
5.807684782425840408e-01 1.374377533647418659e+00 4.647683757776169822e-01
6.956198149051507906e-01 8.788603968410497735e-01 5.992727333001184320e-01
6.975096700632427149e-01 1.812163309616483753e+00 6.666137120749631162e-01
5.933142248589756695e-01 1.897995326423555396e+00 5.942130953706188379e-01
4.005729565302936779e-01 1.993051555801216068e+00 5.792432018000870375e-01
5.966921097902927462e-01 1.268862935591242191e+00 4.368927958823138891e-01
6.840876357388817608e-01 1.577847493573024007e+00 7.219751310127846544e-01
4.075692084613048438e-01 1.172545123952335899e+00 5.644025334632944979e-01
4.749186717468354413e-01 1.334275360751138395e+00 7.427238838389913500e-01
-7.026850061307943207e-02 1.916640324118149552e+00 3.398591029112596473e-02
4.211014640427752642e-01 1.883533692823930794e+00 3.527830169731361876e-01
5.260220032481882635e-01 1.677609784573028007e+00 7.462509757475797034e-01
6.341110754496602775e-01 1.397187591302858412e+00 5.276772940031952963e-01
5.726110720891860462e-01 1.699082575759667257e+00 4.947171472694633643e-01
6.695098204901143157e-01 1.647062776211994262e+00 6.501260800934001161e-01
5.891422220868923754e-01 1.958625898921023678e+00 2.730484892237337036e-01
5.998710240630210633e-01 2.074754733545319141e+00 4.675965682821043856e-01
3.666169131014681559e-01 1.776341028485623363e+00 8.020233529091720381e-01
1.204090077395737479e-01 7.921792400921982003e-01 5.939922078644850334e-01
-1.547641935269723490e-01 1.813849855446846071e+00 -3.383790722143165119e-02
5.435747230804551799e-01 1.760032594291305541e+00 2.910404564957019824e-01
3.466812603152262806e-01 1.256655914304388499e+00 5.450995262658009377e-01
6.979586952734747607e-01 8.141847515194909901e-01 5.469536048125218652e-01
2.411853831819743554e-01 7.763573532264209653e-01 6.582948106825052825e-01
4.554495361858877933e-01 1.746004614762155072e+00 3.283559050937815416e-01
4.367553380228286208e-01 1.540498857855772563e+00 4.213412335089964378e-01
