1.880953 3.060377 1.725152 
2.014438 3.332784 -0.233454 
-3.227621 1.838196 -1.574845 
-0.703715 1.231936 -0.410352 
-2.997350 0.274722 1.268414 
-3.641310 4.221399 1.404284 
2.299065 6.342975 -1.266508 
1.736943 1.370297 -0.134023 
-3.418845 2.680616 0.535802 
-3.521360 0.628856 0.208770 
-2.499768 0.656433 2.153070 
1.987336 4.246958 1.400327 
-2.738067 1.717773 -1.517756 
0.695773 5.291158 -2.928364 
0.167177 0.313191 -2.462909 
0.671716 1.231936 1.382832 
-1.142704 3.601251 2.764166 
-3.006439 6.847743 -2.421011 
-0.410216 2.318937 2.674588 
1.693584 3.542718 -1.345042 
-0.006190 3.122774 -3.058832 
-2.458298 5.925629 2.410601 
-1.980239 0.213439 0.811244 
-3.635037 6.126128 -1.581362 
1.700303 3.029167 -1.253202 
-3.637852 8.210198 1.248452 
-2.194228 3.214515 -2.354658 
-3.817545 2.157979 -0.027996 
-0.398364 3.405275 2.922947 
1.445425 7.912831 -2.181596 
1.080923 0.382675 1.991192 
-1.375757 1.836149 2.479130 
-0.538350 1.409773 -2.480965 
2.415629 4.579410 -0.662900 
-1.272585 4.474134 -3.183308 
-0.525361 5.107319 -2.890277 
2.155043 5.298642 0.233402 
0.869972 2.835191 -2.533159 
2.420614 5.573204 0.823297 
-1.692214 1.184167 -2.630540 
1.313784 1.396976 -1.931287 
0.499465 4.215235 -2.547349 
2.330431 7.749347 0.129261 
2.218181 6.615905 0.474964 
-1.898410 1.588245 -2.216659 
-2.127975 0.213885 -1.327797 
2.473662 7.346214 -0.819849 
-0.281059 0.766481 2.704080 
-1.768952 6.271761 2.798315 
0.050530 7.228259 3.223726 
2.005929 4.432547 0.743915 
-0.004724 0.213076 -0.832338 
1.844692 1.774063 1.239689 
0.966957 1.231936 -1.224511 
-1.385925 3.262091 2.692325 
2.254714 7.017470 -0.422017 
-0.380295 4.749310 3.084782 
-2.809089 6.030627 -2.127293 
1.672539 4.634264 -1.534437 
2.143259 5.877355 -0.603936 
0.805769 4.944747 -2.434257 
-1.693345 2.924043 2.573256 
2.014620 4.982145 1.713137 
-1.052171 7.814255 -3.070338 
0.004513 1.955618 2.938869 
-1.427043 0.486667 -2.706601 
-1.989460 1.231936 1.156509 
0.779165 6.733121 -2.934787 
0.837321 7.196754 -2.917372 
2.430735 3.882432 0.335298 
-1.358441 1.231936 -1.105945 
-3.900511 6.736413 -1.002699 
0.341073 1.231936 -1.996122 
-1.511905 1.231936 -0.571695 
0.639494 7.211394 -2.709930 
1.606777 2.417871 -1.328340 
-3.017778 3.816211 -2.220814 
-1.562430 8.108670 2.998119 
-3.479117 4.412953 -0.811484 
1.293750 3.861281 2.457480 
-4.067281 7.447164 -0.223920 
2.293152 5.105828 -1.166526 
0.936389 3.872710 2.698130 
-1.819150 4.682035 2.660686 
-0.337774 8.212176 3.181450 
2.177099 5.871539 0.406819 
2.242181 2.775038 -0.894224 
-1.777220 1.302037 -2.614365 
-2.605312 7.356588 2.757651 
1.994345 3.180277 0.326264 
-3.287401 2.375947 -0.915216 
-1.365667 6.788046 3.252183 
1.603670 3.606311 -2.139923 
-3.679945 8.204752 1.114815 
-3.048166 1.231936 0.255352 
-2.289702 5.025951 2.448079 
-3.666870 6.674124 1.552811 
1.855872 2.574605 0.769057 
1.595175 1.956937 -1.927171 
-3.666360 3.503814 -1.245774 
-2.968747 6.698597 -2.450918 
0.529102 5.050521 2.598510 
-3.182102 0.290541 -0.916442 
1.325487 1.355295 -1.375569 
-1.278865 1.231936 1.110718 
-0.201454 5.228013 -3.214205 
1.223347 8.193062 2.687720 
1.739243 5.957700 -1.602466 
-1.862423 6.396225 -2.772184 
-3.738732 3.077621 -0.607194 
-2.734303 2.730836 -2.401978 
-3.353832 2.273265 -1.638865 
-3.268548 7.960777 -1.796449 
0.837941 2.403120 2.529296 
0.897191 5.418211 2.824331 
2.174685 1.958951 -0.821005 
0.677557 2.177073 -2.720001 
-0.941933 0.213750 -1.772316 
-1.140718 6.271984 -2.955146 
-2.380295 0.213603 0.124380 
-3.680464 7.769466 0.949788 
-4.036354 7.282161 0.473884 
0.656270 4.176948 -2.891478 
-1.299510 4.751970 3.192185 
2.060287 1.988878 -1.199405 
1.183030 4.900850 2.608137 
-0.171435 2.739674 -3.056898 
0.969137 6.819486 2.830529 
-3.942128 6.538650 -0.844567 
-0.415361 2.139237 2.657763 
2.001203 5.911646 -1.081222 
-3.473954 6.313075 1.207185 
-2.260134 0.213516 -0.347594 
1.623567 5.029335 1.658443 
-1.216131 3.622885 -2.753677 
0.228461 6.455097 2.828982 
-3.442587 2.747841 0.425397 
1.051036 0.439220 -2.089036 
-2.585416 5.108897 2.241354 
1.695031 4.699603 1.506962 
-1.730433 1.520740 2.658046 
-2.368232 1.231936 0.029391 
-0.987423 1.231936 -2.173003 
-1.596654 0.779757 -2.581403 
0.855370 2.291708 -2.163330 
-2.176684 1.231936 -0.410865 
-1.891538 5.688781 -2.707263 
-2.588676 6.543288 2.744089 
1.862846 4.760359 -1.919281 
-3.388242 7.094229 1.500575 
-3.191205 1.860253 0.815377 
-2.316461 2.152762 2.637920 
-3.351213 6.133092 -2.016786 
-2.517123 6.113980 -2.775562 
-2.788627 4.682033 -2.015735 
-3.577734 1.554297 0.203736 
-1.461149 6.404078 3.221301 
-2.559033 1.004732 -2.145133 
-1.502085 3.978906 2.716823 
-2.563754 0.816463 2.135833 
-2.249879 4.522607 -2.858541 
1.101198 5.822494 2.296550 
0.805802 8.102677 -2.690509 
-1.341223 5.667612 -3.222064 
-1.871649 0.213089 -0.094124 
0.207577 1.231936 0.807746 
1.089667 5.335950 -2.262355 
-0.402704 1.707734 -2.723013 
-2.301019 6.477606 2.559747 
2.541858 6.754045 -0.356201 
-1.644510 2.327164 2.913555 
2.015834 4.471632 -1.538002 
-1.917752 5.374132 -2.671475 
1.980871 2.767137 0.070398 
0.092820 1.231936 1.948352 
-2.401960 3.801491 -2.728224 
-3.331855 2.472979 -1.705568 
-1.067804 1.044271 -2.656738 
-3.739648 6.459002 0.036172 
-1.113972 7.174158 -3.020245 
-2.552120 5.658264 -2.734908 
2.150015 7.420390 0.982699 
1.985035 3.746192 -0.620504 
-1.030515 2.266809 3.065242 
2.452566 4.880843 0.540684 
-3.131245 4.275504 -1.545467 
1.877358 4.133326 1.056603 
1.887476 7.013662 2.014657 
-3.709032 6.137291 -0.231297 
-1.994003 2.459677 2.401976 
-3.641551 3.788021 0.710363 
-2.714623 6.169782 -2.229352 
-3.565065 2.731654 -0.749513 
-2.558778 6.697874 -2.404229 
-3.145495 6.531390 -2.271381 
-2.719590 0.338500 -1.780599 
1.974206 3.354434 0.541453 
-2.240038 4.687551 -2.872676 
-0.045778 6.169793 -2.888787 
-2.889354 7.082997 2.151966 
2.446523 6.321473 0.820164 
-3.863802 6.759052 1.113811 
-1.145053 2.474288 2.678106 
-3.105027 0.214466 0.800897 
-2.589716 7.055972 2.760076 
-0.574182 3.026150 -2.745101 
0.192935 5.695815 2.785983 
-1.477103 1.231936 1.732744 
-2.605247 1.658940 -2.159862 
0.474810 1.567482 -2.561049 
0.996235 1.526004 -1.784777 
-1.819106 0.213752 1.428890 
0.527079 4.896469 2.987563 
-0.552682 0.259658 2.557312 
-1.149871 1.231936 -0.978271 
-0.893537 6.019817 -3.285523 
-1.166591 1.818573 2.510907 
-1.103681 1.334809 2.779011 
0.262943 2.586109 2.937368 
-2.043855 0.213263 0.108731 
-1.710586 1.231936 2.276457 
2.287796 3.648968 -0.952549 
-1.495659 1.231936 -0.718045 
-3.804509 4.052864 -0.656933 
-3.458725 4.688674 -0.939722 
-3.240581 1.493042 -0.054454 
-3.144993 6.849735 -2.284156 
-3.378862 3.010587 0.793957 
1.781455 0.282847 0.565209 
1.850608 3.185104 1.784030 
2.384157 4.743823 -0.833026 
0.365423 2.802050 2.495045 
-1.784997 7.692109 3.166168 
-3.151694 2.804286 -1.298971 
-0.751554 7.615746 3.072985 
-0.340658 1.231936 1.140545 
0.707313 5.917027 2.572785 
1.637107 1.119404 -1.488428 
-1.622433 8.144593 -3.225857 
-3.734824 7.228090 1.453418 
-1.574512 0.788112 2.673851 
-0.271221 8.212176 -3.226588 
1.959975 6.658967 -1.306847 
-3.623448 4.813368 -0.082734 
-3.649482 5.185771 -0.088586 
1.750208 1.930392 0.806739 
1.759919 8.097082 1.830933 
1.749457 1.729273 0.204667 
-0.639400 0.213468 -1.499954 
0.704947 1.231936 0.616704 
-3.435462 2.570545 1.554503 
1.777928 6.173269 -1.568425 
1.931384 4.695298 1.818161 
2.304677 7.313013 -1.314042 
-1.235988 4.012727 2.779210 
1.162309 5.865256 -2.249997 
1.437638 6.005936 2.458190 
-2.343753 0.642406 -2.119317 
-3.648958 6.827506 1.594926 
0.228771 2.025909 -2.899381 
1.298982 6.262866 2.583512 
-2.907288 3.214262 1.724230 
-2.366314 2.923600 2.213226 
-2.873396 1.695713 -1.318127 
-3.057281 6.154748 1.869231 
-3.515931 3.887966 0.498913 
-2.152406 0.633434 -2.229635 
1.875863 8.168116 -1.675304 
2.205579 5.910384 -0.055494 
-2.696956 3.379799 -1.976017 
-1.999778 2.812628 2.429725 
-3.960813 5.446895 0.599785 
-3.498589 7.327742 -1.322932 
-3.222291 0.519390 1.072738 
1.243082 2.859611 2.412388 
-0.905824 4.493101 -3.224710 
-3.688393 6.046604 -0.380889 
2.439358 6.197971 -0.836360 
2.295821 6.593441 -1.289610 
-3.213091 1.854813 1.624602 
2.518770 8.211670 0.475913 
2.414585 5.818866 -0.878806 
1.733361 1.672452 0.320150 
-0.079184 4.799744 3.172752 
-0.062327 6.776454 2.935686 
-0.174632 2.704217 2.664367 
0.670847 1.231936 1.644777 
1.370683 1.231936 0.473765 
-3.491433 2.902657 1.509233 
-2.182189 0.766586 -2.301342 
-1.189136 2.543966 -2.676272 
-0.571618 1.378767 2.482775 
-1.702056 3.354155 2.984666 
-2.063982 3.881341 -2.912981 
-3.382601 6.484982 -1.990738 
-1.721111 1.823382 2.356745 
-2.350197 7.638015 2.622648 
2.492333 5.605543 0.471762 
2.467431 8.212176 0.310537 
-0.169131 3.314784 3.106649 
-0.058225 1.250874 -2.732312 
-3.903514 7.104692 -1.026365 
1.243207 5.238536 -2.584447 
2.402099 5.352379 -0.863509 
1.924318 6.955269 -1.960541 
1.543647 0.795540 -1.235695 
-1.454854 4.267322 2.750803 
2.134861 6.911860 1.634673 
2.007270 5.973591 -1.793311 
0.725328 1.231936 -1.990311 
-0.652011 7.143178 -3.317505 
1.630302 0.376781 1.271618 
2.137814 6.524692 0.812005 
-2.256044 6.595412 2.597253 
2.490495 4.836509 0.219861 
2.442255 5.169828 -0.667323 
-2.768615 4.631319 -2.525219 
-0.421568 1.231936 -1.761835 
-0.947985 1.231936 -0.819167 
-0.236328 6.276584 3.255956 
2.384198 3.916164 -0.107054 
1.081545 1.241836 2.142822 
-1.202052 1.231936 2.430278 
2.110462 7.328202 -1.696404 
-0.446889 1.635966 -2.825226 
-3.240908 2.084749 -0.962012 
-2.984162 8.154180 -2.160777 
-3.676898 6.009427 0.438791 
-2.916210 0.214278 0.776547 
-3.152468 5.778933 -1.701290 
-3.157120 5.309751 -1.639111 
1.799549 7.752980 -1.735296 
-2.408948 1.459297 -2.290675 
-1.247455 4.233942 2.793185 
-3.307112 0.263343 -0.219186 
-3.659225 5.303406 -0.039704 
-0.720058 5.368065 2.916420 
2.514396 6.599597 -0.527410 
-1.339227 0.214345 -2.295913 
0.405087 2.622647 2.461970 
2.196434 8.057083 -0.980610 
-1.607518 3.468291 2.645825 
-3.473674 2.272956 -0.686914 
0.806108 7.048266 2.929904 
2.483890 8.212176 -0.487366 
-0.811570 0.213366 1.400995 
-2.821669 3.154597 1.821081 
-1.547116 1.541093 2.365201 
-1.806644 1.437998 -2.622864 
2.443247 5.188629 0.666024 
-3.442407 5.363464 -1.844836 
-0.949879 1.231936 -0.202034 
-1.320230 7.999444 3.288362 
1.228837 1.467151 -2.026103 
1.272474 3.112301 1.873977 
-1.002979 3.991759 3.193487 
-3.470354 8.212176 -1.643374 
-0.661011 6.122883 2.967059 
-1.317874 5.168273 -3.208087 
1.926663 3.918351 1.754748 
0.926539 7.793085 -2.590539 
-2.689336 2.771786 -1.920064 
1.275932 2.304512 -1.779428 
2.098174 6.599252 -1.681040 
-3.344511 3.878083 1.079051 
-1.854450 1.963713 -2.658656 
-3.146464 1.107906 -1.287121 
-3.562711 1.900566 -0.848011 
-2.578732 4.498792 2.658365 
-3.064412 1.231936 0.406247 
-3.347583 0.456635 -0.958166 
-3.399139 2.552280 0.576510 
-0.090235 0.925688 2.726927 
1.249218 7.089686 -2.288054 
-3.421263 4.780018 1.832718 
0.243504 7.577547 2.906049 
-3.598581 3.355136 1.371838 
-0.240498 2.021991 -2.914168 
1.222359 5.051820 2.591251 
0.100249 2.065817 2.941872 
-3.199790 7.973878 1.892801 
1.642955 4.586902 1.575819 
-3.937608 7.293664 0.928774 
0.366401 8.081683 3.148893 
-3.835081 2.424150 -0.175582 
-0.309693 0.532110 2.589909 
-3.728727 7.535155 0.718660 
-1.972681 1.231936 -1.615454 
-1.105117 2.005831 3.035883 
-2.780755 5.374381 -2.556035 
0.469479 0.213186 0.122006 
0.278918 2.640293 2.519480 
1.186620 0.477695 2.005692 
0.151247 3.004403 3.008429 
1.672429 0.523140 1.110098 
-0.919184 5.280742 -3.258946 
-0.285135 1.231936 -1.516469 
0.466867 2.511488 2.423446 
1.672103 2.401234 1.203412 
-3.496409 1.946215 -1.268073 
-0.468957 4.537384 -3.198678 
0.313623 5.683799 -2.739523 
2.098805 6.202579 -0.863065 
-4.051528 6.582514 -0.062073 
1.815708 4.385364 -1.240702 
1.906099 4.908584 -1.129842 
1.265373 2.884056 1.856533 
0.415686 2.986091 -2.916045 
-2.624239 7.812138 -2.450939 
-2.319232 7.914299 -2.942442 
-3.449643 3.625395 1.675272 
2.194045 7.776485 -1.566478 
-1.863760 1.890770 2.345921 
1.845423 2.104087 0.655370 
1.398520 3.070995 -2.298864 
-2.955046 3.220352 2.119131 
-3.574415 5.071423 -1.616231 
-3.160266 5.787788 -2.182047 
-3.922354 5.833666 -0.834318 
-3.081951 4.692324 2.208526 
-1.600661 6.126479 2.844090 
2.174583 4.639267 1.389017 
-3.385215 6.019365 1.964411 
1.093366 1.231936 -0.474091 
-0.256955 1.091447 -2.767297 
2.289674 7.123652 -0.056339 
0.630275 7.016690 3.015676 
0.604106 7.717863 -3.045034 
-3.904868 5.569414 -0.843908 
-2.686035 4.156570 -2.561675 
-2.813377 5.574825 2.538542 
-0.582023 7.674506 -3.326903 
-3.564718 7.413236 1.766034 
-1.166962 1.231936 0.064407 
1.545008 4.864235 -2.299912 
-3.976806 4.511933 -0.054662 
-3.971116 4.978311 -0.429257 
-0.646578 0.213201 -1.234279 
-2.894083 0.563089 1.660063 
1.499459 1.310598 -1.061279 
1.006990 5.860715 -2.373417 
0.759717 0.214042 1.417890 
-3.120539 1.829947 1.720165 
-3.287995 5.108606 -2.037663 
-2.964535 6.019724 2.429355 
-0.459026 3.632760 -3.053855 
-3.556535 2.294258 0.791888 
0.461323 3.286264 2.491207 
-2.976251 7.581206 -2.110383 
1.105448 1.466666 -2.140191 
-3.649850 6.764763 -1.589599 
2.077220 1.589144 0.282399 
-0.071606 6.309016 -2.904741 
1.872720 3.455559 1.782612 
-1.372117 0.214179 -2.116292 
-2.644675 7.781426 2.740923 
-0.722869 1.231936 -1.308769 
-1.071125 0.285631 2.575577 
-3.275410 4.598577 -2.015450 
-3.058507 4.786144 1.713089 
-0.376758 2.471196 -2.827405 
-1.442396 7.805684 3.260878 
-2.973133 7.152745 2.070337 
0.096711 5.140923 -3.147765 
-0.861023 4.147134 -3.209914 
-1.532733 4.601756 -2.753503 
1.680653 7.806888 -1.903687 
-0.493810 7.932253 -3.327368 
2.079689 6.320308 -1.696666 
-1.202083 1.386626 -2.787552 
0.748344 0.973495 2.182001 
-0.607355 3.692497 3.181596 
-0.524978 7.258570 -3.315555 
1.362852 8.132401 -2.589510 
0.352530 0.213205 0.577200 
1.432271 6.137269 -2.469140 
0.121568 1.231936 1.349251 
1.464085 7.351049 -2.481954 
0.238488 2.190654 -2.910891 
2.338202 3.094718 -0.617085 
1.354079 7.517493 2.230460 
-0.849292 0.214366 -2.387082 
1.311853 3.479086 -1.870827 
1.784772 7.790451 2.168222 
1.326779 3.324881 -1.838599 
1.642722 8.212176 -2.097023 
1.090173 1.630805 -1.693445 
0.299540 2.090248 -2.459904 
-3.154583 2.710589 -1.903181 
-0.043448 8.212176 3.216762 
1.462711 5.503108 -2.410845 
-2.901729 0.214199 -0.570096 
-3.294868 4.350095 1.269198 
0.883052 2.989441 2.510124 
-1.750281 7.713813 -2.911758 
1.761525 3.905960 -1.273449 
1.623463 4.780548 -2.210612 
-3.501984 2.121256 1.350114 
-1.006905 0.214289 -2.299575 
-1.565688 6.315649 -3.194524 
-3.355817 4.253474 1.881258 
-0.949533 0.456847 -2.764206 
1.915022 8.022224 2.015267 
-3.146051 7.855761 1.945442 
0.324089 7.545637 -2.873385 
2.576174 7.584556 0.198458 
-3.516150 5.413846 -1.734210 
-2.465331 3.053706 2.632799 
1.489393 0.618620 -1.668001 
-2.878802 0.214133 0.369791 
1.929504 2.701870 -0.511229 
-3.143277 6.844108 2.285764 
0.599616 1.231936 -1.118375 
0.395008 0.787671 -2.531553 
-1.166313 3.324099 -2.739823 
-0.864760 7.166055 3.317306 
-2.913071 4.651706 -1.879129 
0.678144 6.756038 -2.654031 
-2.772323 1.719788 1.470051 
1.104529 4.240143 -2.150011 
-4.038322 6.254031 0.199628 
0.754658 6.056384 2.557059 
-2.373662 0.213880 1.008198 
1.324327 2.453321 -2.298386 
2.432306 7.303656 0.962334 
-1.754866 6.465193 -3.143926 
-2.365037 6.809352 -2.888724 
1.835313 0.795754 -1.090736 
-2.773216 5.543258 -2.569875 
-2.334072 1.231936 -1.465352 
-1.401629 4.518597 2.781495 
-1.691582 2.875166 2.900697 
-3.508134 2.647944 0.685830 
-0.452710 7.675734 3.061755 
-2.890208 7.082980 -2.533077 
-3.595701 5.854657 0.775730 
-0.958042 1.231936 -0.980461 
2.278144 5.345594 -1.230235 
-3.484608 8.188891 -1.502763 
-1.253390 4.478274 3.186673 
-3.857959 8.030371 -1.213456 
1.582288 7.162540 -2.365568 
-3.610920 5.256272 -0.518790 
1.852503 2.164423 1.267841 
0.653764 2.332412 2.747394 
1.886310 2.755667 1.670046 
1.873639 2.959082 -1.722381 
2.190514 5.722275 -0.120289 
-3.605513 6.979186 1.680961 
-3.338055 4.271148 -1.907576 
-3.522295 5.434218 1.725765 
-1.144475 3.449782 -2.752687 
-2.431641 6.695409 -2.847055 
-0.711141 5.143810 -3.258771 
-3.233158 1.584874 -0.242022 
-1.110133 6.981914 3.294945 
1.492622 2.445703 1.517354 
-3.910266 4.331881 0.608263 
2.463668 6.986110 -0.824667 
-3.029425 1.683124 1.710895 
1.728254 6.758665 -2.196692 
-0.039691 0.212879 -0.586713 
-4.031466 6.795461 -0.424988 
-3.430233 1.619945 0.942954 
1.912800 2.082978 -0.249725 
1.404988 4.334742 -2.396484 
-1.286654 0.212761 -0.597302 
-3.493457 1.763386 -0.874399 
1.763217 7.374864 -1.741697 
-2.499836 2.697377 -2.086185 
1.727226 1.536462 0.327639 
1.217915 0.907499 1.737123 
0.915168 8.041980 -2.896817 
-1.918552 0.214335 2.049467 
1.985523 3.031290 0.305082 
-0.517528 1.231936 0.027064 
0.840918 2.334744 2.409302 
-1.276980 5.137739 2.853040 
-3.653283 2.885892 1.167251 
-1.275876 0.212689 0.508460 
-2.727666 2.214382 2.351346 
1.443448 2.850467 2.232918 
-3.465245 8.212176 1.695177 
0.056771 0.213224 -0.971822 
-0.781125 5.840098 3.283017 
0.614746 7.342738 -3.031155 
1.784277 2.542854 1.309494 
1.282395 6.301964 -2.598481 
1.409141 4.749779 1.899459 
-3.088630 4.006967 -1.576773 
-2.872919 7.894543 -2.244144 
-0.970257 4.059137 -3.200969 
0.696931 0.214323 1.852423 
-2.889543 4.056379 -2.388578 
-3.802333 7.651273 -1.326988 
0.899667 5.845494 -2.449220 
-3.447396 3.693330 0.739439 
-4.049589 7.446248 -0.403213 
1.992097 7.623524 -1.391635 
1.033338 0.964379 2.168412 
1.536645 0.387280 1.452666 
-3.693618 3.570529 -0.813900 
-2.920375 0.214482 -1.246692 
-1.930372 2.453057 2.746163 
0.808262 5.502419 2.876425 
2.486529 5.407639 -0.047237 
2.200582 2.751987 -1.021304 
-0.680527 0.214300 -2.323290 
1.114937 1.365324 2.123307 
-2.320948 0.317184 2.109316 
1.488371 3.029982 2.209655 
-2.181819 5.830725 -2.953289 
-0.785688 5.775566 -2.944421 
1.043877 3.420365 2.451143 
-1.141041 3.789188 3.166574 
0.127670 4.685037 -2.731955 
-2.359134 7.714726 -2.916133 
-3.862410 3.085357 -0.441019 
1.401058 1.627217 1.276681 
1.351642 6.243175 -2.111951 
-3.329439 6.509543 1.522060 
-0.443215 3.838666 3.057462 
-2.520453 3.273945 -2.613263 
1.042458 3.035163 2.088531 
1.837991 2.371437 1.687167 
-0.980616 0.213112 1.125865 
-3.596831 8.211525 1.670033 
-0.068254 1.518064 -2.400549 
1.480353 5.770442 -2.407079 
1.114740 1.696487 1.670486 
2.102298 4.816457 -0.407605 
-2.368315 2.164201 2.135659 
0.059342 0.526783 -2.519825 
0.940969 0.652613 2.151952 
2.213044 6.893486 -1.487423 
2.419542 4.827441 0.698196 
-3.752960 4.367914 0.706583 
-1.807162 3.661811 2.777833 
-1.584003 0.565235 2.453824 
1.899766 3.587557 1.436833 
0.736879 2.427724 2.260358 
1.023718 3.969153 2.191773 
1.598002 6.051728 -1.814332 
-2.899314 3.853750 -2.361945 
-0.515928 4.927603 3.241301 
-2.234519 0.214164 -1.608137 
-0.175193 1.231936 1.005235 
-2.880032 7.914557 2.239445 
-0.792572 1.908130 2.609977 
0.867808 1.231936 -1.126130 
-0.973800 3.016839 -3.134018 
1.983308 7.711659 1.908246 
-0.628112 1.231936 -0.683456 
1.652059 5.489904 1.674021 
-3.254072 4.190965 1.322077 
-3.722070 8.201001 -1.490232 
-3.002298 5.177730 -1.829300 
0.819935 2.250396 2.627087 
-2.982034 7.521492 2.465919 
1.777429 3.109860 1.878160 
-0.407337 0.213784 -1.786220 
1.986597 5.762275 -1.090511 
-2.806364 7.680390 2.286345 
-0.078928 2.335928 2.612735 
-0.157118 0.214190 -2.138753 
-3.637215 3.004319 -0.648006 
-0.543258 8.019946 -3.094301 
1.653751 4.804644 1.587598 
-1.791008 1.710941 2.599072 
0.598077 1.779527 -2.560369 
0.926844 0.536946 -2.099474 
1.234283 1.144760 -1.996187 
-2.209473 6.389398 -2.606232 
-0.269120 1.231936 -1.841570 
0.692724 3.999372 -2.862695 
1.719803 0.378425 1.093951 
-3.453014 0.746227 -0.495483 
-3.031027 0.924996 1.629159 
-0.762824 3.456176 3.170865 
-2.651138 5.210107 2.196341 
-1.053073 0.235819 -2.517504 
-2.260310 5.390845 -2.895232 
-1.476369 5.967726 -2.868112 
-3.637414 2.347771 -1.080254 
0.515248 7.640994 -2.801720 
2.279092 6.468439 -1.318576 
1.836092 7.320374 2.089389 
-1.177835 1.671208 2.817255 
-3.687783 3.711172 -0.789142 
-1.839020 1.766691 -2.270250 
1.142493 8.194824 -2.743979 
-2.884133 0.448798 1.753244 
2.004658 0.654020 0.456790 
-1.288145 1.231936 2.317042 
-1.474252 1.680867 -2.758027 
1.105649 6.787220 -2.379508 
0.964574 0.214482 -1.827187 
-0.795112 1.231936 -2.021423 
-0.953016 0.373314 2.686043 
0.517837 7.482197 -3.077813 
-1.715707 7.989637 -3.194013 
-1.137841 4.349962 -3.197858 
0.973467 4.763729 2.303101 
-3.533350 3.564086 0.121199 
1.037740 7.366289 2.478783 
-3.810474 8.208111 0.705165 
-1.227244 6.879867 3.277534 
1.074121 5.559903 2.626773 
-3.448293 5.938575 -1.200752 
1.550031 3.340854 -1.553796 
0.779468 6.434384 -2.572480 
2.470171 5.656745 0.616546 
-0.461989 2.961833 -2.729766 
1.580821 0.780585 1.563020 
1.639619 5.332829 1.672683 
-1.453324 1.231936 -1.720188 
1.316303 2.573617 2.319797 
-3.641179 3.292076 1.268529 
-0.788918 5.901500 -2.953074 
-0.536073 5.370385 -2.909795 
1.963766 5.742489 1.143655 
-1.229613 8.071473 -3.304929 
0.403165 2.163019 -2.420604 
-2.662219 7.671335 -2.725382 
-0.967623 3.408802 -3.159797 
0.957220 6.113048 -2.430695 
1.553844 7.752556 2.049760 
0.796528 0.285831 -2.085805 
-2.855457 3.707172 2.390119 
-0.622817 0.731314 -2.800056 
-0.617054 4.759306 2.870465 
1.845633 3.125005 -0.934936 
1.609432 0.798811 -1.384307 
-0.532877 6.976062 3.309211 
-0.810049 0.213850 -1.879597 
0.457789 3.748877 2.952942 
-3.108947 4.160660 1.566019 
-3.890761 7.741204 -1.108234 
-1.486654 0.213620 1.479759 
0.635459 3.563262 2.860317 
-3.465902 1.722905 -0.744037 
-1.442603 0.213160 -0.975112 
2.382945 7.108009 -1.101446 
1.554121 7.390796 2.012772 
1.283142 6.018558 -2.154950 
1.150318 0.325241 1.837438 
1.434955 6.133940 2.013052 
0.232694 5.269373 2.739386 
-2.732152 8.187868 2.409544 
-3.359757 1.642845 1.130482 
-4.019958 7.939300 -0.658726 
2.499216 7.911419 -0.764948 
1.255669 6.249468 -2.202753 
1.280706 2.285619 1.771165 
1.033149 3.783653 2.476207 
-0.619815 4.940131 -3.246838 
1.075968 5.697124 2.650189 
-3.488812 3.140930 0.305467 
2.139024 3.063635 -1.248382 
-3.204956 3.279773 -1.274488 
-2.133797 2.156247 2.738935 
2.435798 4.356815 0.106994 
1.785727 2.263169 0.903815 
1.525551 1.842377 -1.866066 
2.324788 5.423051 1.113595 
-0.292904 1.162418 2.776062 
0.879817 0.213612 0.255776 
2.015572 0.509996 0.410361 
1.514833 1.731501 -1.759974 
-2.462630 7.636003 -2.854571 
-1.807167 0.351492 -2.452574 
2.360913 2.903647 0.384173 
1.270781 1.665662 2.012433 
1.574029 6.206719 2.339027 
-2.616115 4.472540 -2.157861 
2.298818 2.535468 0.580445 
2.480452 7.703785 0.825334 
-2.402855 1.231936 1.809835 
-3.638524 7.930999 1.100561 
-3.949526 8.209825 0.845616 
-0.651628 4.070241 -2.823013 
1.748050 0.689981 0.583707 
-1.330479 1.231936 1.701287 
-3.835431 7.870698 -0.090781 
2.204813 6.103284 0.298953 
0.748812 1.231936 -0.360050 
1.593720 3.012242 -1.439961 
0.462950 0.214310 -1.998407 
-2.990704 6.546691 -1.990596 
-0.933001 3.140251 2.752783 
2.404522 3.264040 0.202035 
0.659858 4.156577 2.888797 
-2.784224 7.542580 2.633438 
-0.605551 5.807870 2.943459 
-2.620752 2.794389 1.988079 
1.860488 4.037793 1.863267 
-1.715151 1.939229 2.599909 
-0.387844 0.658922 2.559810 
-0.828077 4.284924 -3.217562 
-0.199089 2.262257 2.633597 
0.885621 1.231936 0.291536 
1.356822 2.345930 -1.687097 
-0.593639 1.231936 -1.825148 
-0.723432 6.756780 -3.012967 
1.724571 0.365241 -1.050629 
-3.836997 8.212176 -0.775793 
1.892944 4.013225 0.991463 
-0.131499 1.231936 -1.423549 
-0.922658 0.213308 1.333934 
-0.967127 5.672340 2.930087 
-1.019944 3.363842 3.151652 
2.265642 7.019602 0.327006 
1.225367 7.130852 -2.668817 
0.742926 7.376667 -2.972323 
-1.491882 4.772188 -3.153822 
-3.479961 7.979532 -1.916534 
1.960428 4.439898 -1.751400 
-0.404226 2.036305 -2.646732 
2.119684 7.309256 1.041576 
-1.698519 3.151693 2.946414 
-2.126566 8.209164 -3.011209 
-3.090657 0.214336 0.295966 
1.875709 1.941205 0.201315 
2.007338 5.047252 0.887245 
2.010504 4.610384 -1.499923 
-3.424043 3.892856 -0.865215 
2.200293 6.420809 -0.500573 
1.929392 4.063607 -1.767416 
-0.852443 5.114849 3.255440 
0.096366 6.535050 3.194478 
0.613676 7.216289 -3.028586 
-1.959229 7.645162 2.825314 
-2.283505 5.940095 -2.526807 
-2.152984 3.683711 -2.420472 
-0.088091 6.356439 2.911964 
0.520458 7.215006 -2.767120 
1.921234 0.769350 -0.857611 
-2.756293 2.024386 1.751709 
-1.211603 1.561023 -2.453463 
-2.417854 7.790359 2.886408 
-0.849281 1.231936 -2.452051 
-3.701832 3.291028 1.119095 
-1.830311 7.048115 -3.136020 
2.056153 5.847785 -0.918324 
1.431056 3.276791 1.708091 
-2.252713 7.801385 -2.975191 
-1.480889 1.231936 1.874117 
-3.693459 6.146170 0.396263 
-1.113845 7.480973 -3.041349 
2.319051 7.448830 -1.289564 
2.047906 1.097841 -0.076162 
-0.270518 5.386349 2.879199 
-0.033771 1.231936 -0.960292 
1.357255 6.611171 -2.141753 
-3.400911 0.659429 0.910807 
2.126007 4.799855 -0.118940 
-0.817296 8.157112 3.340675 
2.306474 2.708582 0.618085 
1.442566 8.212177 -2.465261 
1.840993 8.212176 -1.814726 
2.027132 8.212176 -1.637706 
1.847471 5.844210 1.402039 
-3.593534 2.997452 -1.326761 
-4.044599 6.843716 -0.304849 
-1.725551 1.657449 2.301559 
-1.835388 1.231936 -0.058065 
-2.414747 1.115277 -2.263624 
0.629124 1.923554 -2.230024 
-3.926878 3.627128 -0.089507 
-1.725546 6.857483 3.163715 
-1.777186 6.168865 -3.128989 
-0.387007 8.063297 -3.081895 
1.764800 1.750510 -0.046207 
1.075503 0.962130 -2.133674 
-0.172635 2.284787 3.008206 
-0.984410 0.212766 0.772721 
0.065770 1.438573 2.355283 
-3.015361 0.214242 -0.000663 
2.079909 5.272160 -1.629778 
1.225951 5.733769 -2.618591 
-3.007471 3.966374 -1.684694 
-0.470178 2.288159 -2.677519 
-3.349024 3.388886 -0.967572 
2.022964 3.009134 -1.299635 
1.121743 8.212176 2.612104 
1.897823 7.485896 1.546107 
-4.051174 7.876924 -0.464382 
-3.815565 7.222018 -1.274908 
-0.682691 1.231936 0.047266 
2.158570 6.550181 -1.569978 
1.728941 8.121122 -2.242229 
1.989386 3.756163 1.610770 
-0.801466 0.213025 -1.064021 
-1.047914 7.414753 3.043055 
-4.069050 7.233803 -0.038438 
1.202603 6.373808 2.262466 
0.505567 6.766025 3.063890 
-3.530932 3.485012 0.016958 
-2.154413 0.214023 -1.492952 
1.870608 3.406236 0.926316 
1.146406 0.577685 1.931173 
-3.868075 5.941246 1.031943 
-3.320740 1.858850 0.069330 
1.847301 0.673197 1.062310 
1.378047 8.189401 2.287076 
-0.606436 4.631727 2.861150 
1.632870 0.861511 1.480723 
-2.310635 0.213528 0.004116 
-3.276546 2.917833 -1.059930 
-3.656067 2.422600 0.905425 
2.297985 6.891069 -1.303777 
2.267473 7.187823 -1.389485 
1.851759 6.213100 -1.448560 
-0.258803 2.881043 -2.985945 
2.335722 4.307812 -0.923954 
1.493106 6.696068 -2.432436 
-0.520829 7.204838 3.313958 
1.939269 3.688137 1.508609 
-0.498443 1.231936 1.137103 
-1.707253 7.748819 -3.191047 
1.873031 3.356817 -0.909852 
-2.238369 1.103126 2.382768 
-3.597994 3.275146 -1.360859 
-1.387757 6.047721 -3.227929 
-0.384465 3.251045 2.901305 
1.824986 4.490028 -1.950192 
1.120726 7.840703 2.459188 
-2.617092 3.007032 -2.013931 
-0.972235 7.705677 -3.325250 
-4.029176 6.081376 0.253507 
2.412595 3.421481 0.177704 
0.515641 5.507749 -2.639619 
-3.171756 7.280994 -1.851765 
-3.046857 4.829204 2.291037 
-2.964002 7.508900 2.115976 
2.120176 2.823288 1.242961 
-3.115318 1.661219 0.806843 
-2.049258 0.214094 -1.678555 
-1.259956 0.213962 1.927996 
1.389699 2.098534 1.607426 
-3.986594 6.044207 0.572970 
-3.335942 0.715599 -0.540650 
-1.595946 1.721406 -2.732481 
-1.698496 7.483608 2.912035 
0.984143 6.258912 -2.423794 
-1.777021 4.524124 -3.036464 
-0.993238 4.358003 -3.212864 
-2.769201 1.875682 -2.175209 
-0.948801 7.755753 3.076273 
-0.569135 7.905108 3.331552 
-1.285174 4.030300 -3.159503 
-3.429527 2.999242 -1.631565 
0.468765 1.231936 0.372222 
1.243590 4.802700 -2.075601 
1.015808 5.037896 -2.734037 
0.953342 1.854761 2.302106 
2.482918 8.040940 0.847401 
-0.073538 5.419163 -3.197388 
-2.614790 1.499384 -1.654313 
-0.619323 5.220632 -2.903043 
-1.335004 1.231936 -0.094080 
-2.772769 7.600373 -2.310259 
0.077577 3.533837 -3.066073 
-1.435175 0.399571 2.632478 
2.005013 3.196001 -0.227954 
-2.962067 8.203756 2.477784 
-1.636439 0.917265 -2.575470 
-3.666998 5.412079 0.032614 
-1.371920 1.231936 -0.647306 
-1.702377 6.870162 2.866742 
0.712654 0.831401 -2.133798 
-2.488591 1.231936 -0.653620 
-0.485368 0.482033 -2.775677 
-2.196305 1.750774 -2.053101 
-1.641488 3.057810 2.603618 
2.317709 7.522422 0.039005 
-3.483608 5.287263 -0.992987 
-3.401520 2.159632 0.375170 
-1.865073 1.231936 -2.198643 
-0.520562 5.831423 3.275352 
0.412278 4.293058 2.592675 
1.769802 6.329936 1.602068 
-2.971817 6.403424 -1.996177 
1.699639 6.282182 1.701828 
-3.382474 3.216011 0.833454 
-0.117581 1.053527 2.737493 
-1.355352 4.875711 3.188874 
-2.714277 5.949395 -2.208679 
1.294349 8.059669 2.643646 
-0.215477 1.231936 -1.625440 
-3.475664 4.764840 0.907549 
-1.127322 0.212473 -0.355046 
-2.556797 4.936253 2.249188 
1.956633 1.243129 0.789333 
-3.149292 5.691264 2.125462 
1.543823 3.692162 -2.212057 
-3.615644 4.975045 0.357709 
-0.795394 3.025670 2.749082 
2.452039 8.210477 -0.848103 
-3.256624 0.214487 -0.047324 
-0.678713 1.407297 -2.488509 
-2.732289 3.556087 1.958731 
-2.427468 3.512356 2.222634 
1.983431 1.779804 -0.955515 
0.885580 7.342331 -2.895203 
1.225513 2.490034 -1.854839 
1.543204 1.294510 0.962886 
-2.388234 3.886519 -2.284353 
1.807351 7.749698 -2.139296 
1.067776 1.231936 0.888951 
-2.306372 3.063349 2.269292 
0.652874 4.034398 2.452211 
-2.812927 5.773768 -2.099203 
-0.671902 5.733632 -3.277882 
1.356703 7.855224 -2.260050 
-1.415592 1.139168 2.731573 
1.537685 0.270567 -1.191491 
1.022900 2.901708 -2.091364 
-3.794345 2.170374 0.387890 
-2.689276 4.103389 2.556262 
1.498150 2.901661 1.570283 
1.263581 1.231936 1.159646 
-2.780196 6.291325 -2.179291 
-3.550048 4.481059 -1.602448 
-3.574150 4.605749 -1.570067 
-3.826247 7.860097 0.252956 
0.943455 5.451652 2.384165 
-3.248390 3.208583 -1.174349 
-3.787723 2.294525 0.496622 
2.276719 3.348016 -0.076226 
-1.873745 1.591608 2.606639 
-0.918161 1.955218 -3.028558 
-1.241177 3.701099 3.145647 
-1.362143 6.900899 -3.255839 
1.883710 2.851890 -1.537208 
1.288203 7.610549 -2.301119 
-2.650901 7.943272 -2.440797 
-3.599629 8.103171 1.738604 
-1.901471 3.029473 -2.495780 
-2.958625 8.009214 -2.172319 
-3.024637 7.704740 -2.431547 
-3.479569 6.547303 1.234268 
2.017948 8.000954 1.870814 
-3.550406 3.758167 0.025334 
-4.059423 8.204719 -0.256475 
2.277396 4.523637 -1.131161 
-0.241403 4.741480 3.197360 
-0.980021 2.151593 -3.060437 
-1.142713 1.444386 -2.459604 
-0.864795 0.636973 2.794619 
1.679300 3.407497 2.033156 
-3.635098 5.996231 0.654947 
-2.880246 8.090160 2.255811 
-0.529035 0.212815 0.826924 
-3.104786 6.736631 -2.322764 
-1.528391 1.231936 1.608046 
-3.720892 6.718512 -1.452543 
2.146606 5.993881 1.502709 
-0.107216 4.657740 -3.172339 
-1.363979 4.952415 2.821800 
0.389424 1.019162 -2.567165 
-0.547716 3.461285 -2.774749 
-2.917678 2.641030 2.156433 
-1.817503 0.493606 -2.579722 
-3.860290 2.909268 0.348378 
-3.923930 3.656415 0.213701 
1.984217 3.610326 0.580472 
2.332639 5.380945 -1.088397 
-3.165672 6.329412 1.748232 
-0.044757 1.409556 -2.737899 
-0.252627 0.213380 -1.326632 
1.400353 5.681736 2.004024 
2.149871 5.537841 -0.430070 
-2.024702 0.213505 -0.862258 
1.586415 0.214336 0.360255 
-1.931726 0.213494 0.967955 
-3.609305 2.437131 -0.614305 
1.376465 7.885848 -2.571329 
1.355260 4.221497 2.433246 
-4.052724 6.734716 -0.147290 
-1.326149 5.539654 -3.219991 
2.289925 2.004730 0.214980 
-3.853356 2.582940 0.028414 
-3.352576 7.145668 -2.057576 
2.055660 3.907375 -0.240217 
-2.805304 1.875692 -1.569057 
-3.005524 5.603769 2.371274 
-2.130322 7.562216 -2.739771 
-3.472699 4.313210 0.808545 
-3.064172 4.968482 2.282118 
1.386986 4.332546 -1.880132 
-1.538147 4.210609 -3.115732 
-3.581508 7.935495 1.241465 
1.998321 5.840418 -1.798802 
-0.168656 1.231936 -1.754053 
2.037995 8.212176 1.592283 
-1.266298 6.346944 -2.939825 
-3.900195 3.200686 0.074962 
-2.506639 2.072577 -2.011969 
-2.251811 0.363061 2.221421 
-0.367256 4.063157 -3.003020 
-1.871764 6.586627 3.107423 
-3.702087 6.013845 0.214126 
-3.448543 3.769875 -1.694392 
-0.793261 4.001727 -3.204575 
1.386705 4.788278 2.442160 
-0.672556 8.211999 -3.297263 
0.726282 4.156188 2.418010 
1.689134 7.862391 -2.276411 
0.476152 4.089385 -2.548142 
1.882366 0.800323 0.969463 
-0.345588 2.437769 2.674445 
0.456597 1.868206 -2.707333 
2.135326 4.928715 -0.111140 
0.487603 6.594739 -2.735046 
-0.495885 1.231936 -1.912994 
-2.321067 1.295578 2.341545 
-3.917589 6.143779 0.790241 
2.054085 5.432578 0.826882 
-0.966084 0.212373 -0.358475 
1.596788 4.621669 -2.228185 
1.555685 2.398243 2.059917 
-3.215451 4.877646 2.068178 
-3.660530 5.980394 -0.526147 
-0.260533 4.410245 2.807862 
1.576324 7.260100 2.374094 
1.888168 1.116530 0.642889 
-3.565223 6.143944 -1.703502 
-3.840960 5.556517 1.071247 
0.375151 2.007370 -2.843151 
-0.879120 0.213914 1.940325 
1.092837 8.212176 -2.611647 
2.357669 2.907907 -0.414986 
0.125327 6.850818 -3.195297 
-3.069274 6.316627 1.872344 
-3.494516 1.268326 0.631082 
0.070757 2.511821 2.989712 
0.380922 3.800147 -2.985197 
-2.279577 3.500970 2.326243 
1.699614 7.546067 -1.850456 
-3.570024 5.707314 0.824627 
0.168216 1.247024 -2.307016 
-3.353396 6.976243 2.049521 
0.972798 5.449197 -2.778531 
1.641620 1.575922 -0.725080 
1.924366 0.351269 0.013527 
-0.796348 0.214486 -2.507793 
0.621439 7.990125 -3.043755 
-2.181275 2.249043 2.273971 
2.241496 6.649914 -1.413033 
-2.218795 2.555917 2.731459 
-3.042990 6.593676 -2.377635 
1.096688 7.488810 -2.446873 
-4.083587 8.106489 -0.180861 
-1.713805 1.231936 -1.541682 
1.736554 3.728680 -1.292982 
0.952861 4.481059 2.293332 
1.432977 4.056919 2.352420 
0.226317 1.231936 1.933061 
1.195690 7.476055 -2.366603 
0.545019 5.288362 2.609558 
-2.023047 2.122451 -2.772512 
2.535525 7.514076 -0.538354 
1.190944 7.337043 -2.358159 
0.231326 7.413414 2.898359 
-2.254106 4.980334 2.880812 
-3.472121 5.864093 -1.833645 
-3.809581 6.802533 -1.261250 
-3.481706 6.141768 -1.836589 
0.501116 1.828181 2.225418 
-3.854013 3.200945 -0.536332 
0.323931 1.231936 0.756433 
-2.921698 7.788086 2.188409 
-1.399136 1.231936 2.194539 
-2.926008 6.566643 -2.486037 
-1.744384 1.245176 -2.272932 
2.293914 7.673861 0.459701 
-1.892321 4.680583 -2.629495 
2.004314 2.236176 1.244503 
1.323402 7.707435 -2.609794 
0.620688 6.721169 2.681883 
-0.474261 6.211730 -3.283217 
-3.121838 5.439590 2.112437 
-3.705262 2.568363 -0.580816 
-3.685057 4.137060 -1.298566 
-2.518023 0.214155 1.279209 
0.677402 0.688924 2.117910 
-1.903463 4.053146 2.868938 
-0.218446 5.394035 3.222956 
-2.160096 1.569347 2.059323 
-1.906371 3.446428 2.526687 
1.196808 3.872225 2.029338 
-0.092980 0.214046 1.969296 
0.484767 6.313237 3.058996 
-3.426076 4.443231 -0.977130 
2.307796 5.981004 1.213965 
-2.308786 0.496232 2.305481 
-0.776546 0.368291 2.689115 
-1.208003 6.289008 3.264736 
-3.793135 7.842244 -0.506852 
-2.224596 0.214358 1.869354 
1.689000 4.385196 -1.474529 
0.852491 1.412462 -2.324411 
-1.666553 2.650858 -2.923840 
-0.258448 1.033212 2.765666 
-2.207320 6.435686 2.961803 
2.121610 4.741610 0.129214 
0.035897 0.639522 2.629254 
-1.987688 1.232647 -2.150450 
2.266549 2.867911 0.839874 
1.261882 5.660195 2.140733 
1.689659 2.955026 1.261142 
-3.936791 4.180716 -0.396686 
-2.253713 7.619518 -2.678393 
-3.391453 4.980211 1.890742 
0.196938 5.750321 -2.788619 
2.029634 5.437332 -1.721660 
-3.147976 3.740851 -1.445712 
-1.560493 0.251044 2.422126 
-1.188154 2.453942 -3.062767 
1.765330 4.654934 1.379451 
0.825968 7.643560 -2.934584 
0.515034 4.994555 -2.600535 
-0.890530 7.776201 -3.079597 
1.211239 1.591180 -1.549860 
0.066270 7.611915 -3.228712 
-0.137998 1.231936 0.607543 
-0.876930 1.829342 -2.549209 
0.989804 6.444209 -2.435526 
-3.809647 2.664676 -0.540565 
0.336582 5.825418 3.098397 
2.028777 4.488461 -0.666251 
2.063479 7.941835 1.292455 
-0.980707 0.214024 2.041554 
0.842090 5.863898 -2.872586 
0.424591 6.164623 -2.730700 
-1.833908 1.231936 -1.021831 
1.382334 2.689153 -1.697838 
-1.230241 1.231936 -1.942551 
2.059281 4.347329 0.465328 
0.938880 3.795124 2.575175 
2.227366 2.310215 -0.808803 
-1.982418 5.851936 3.042823 
-3.379326 4.166912 -1.841321 
-1.377551 7.455004 2.996231 
-3.999399 7.148572 -0.670384 
0.512660 6.355426 2.705524 
-0.043184 4.040597 3.127223 
0.854674 5.563861 -2.454887 
0.517245 6.416286 -2.708071 
-2.274435 2.969262 -2.740680 
-1.294446 6.473414 2.944076 
1.305691 7.653106 2.288676 
-0.642479 1.231936 -1.956384 
0.141630 6.658009 -3.185003 
0.951897 1.466390 -2.263848 
-1.907229 4.298079 -2.892417 
-2.002795 0.213217 -0.012421 
-1.120548 0.213224 1.204783 
2.363977 5.580684 1.017706 
-3.893047 6.089694 0.967438 
-0.829683 0.214033 2.059321 
-1.944641 0.213801 1.388848 
-2.178679 0.605050 -2.058603 
-3.683167 2.761672 -1.057475 
-1.057057 3.673996 3.167723 
-3.271768 4.948028 1.402594 
-0.164891 0.579798 2.749490 
0.128030 0.213693 -1.490104 
1.200792 2.128671 -2.368039 
1.371674 0.214149 -0.505753 
-3.309638 5.460755 1.407917 
1.829762 6.682384 1.551706 
0.912776 7.450913 2.883366 
-0.524507 5.840385 -3.276062 
-3.221723 6.778477 -2.199476 
-2.371023 1.422612 -1.889091 
-3.509661 3.193021 -0.022825 
-0.413631 7.526007 3.310488 
1.799997 2.691548 -0.963005 
-3.515558 2.787013 -1.444085 
-2.308392 1.231936 -0.431641 
-2.149861 4.965513 2.525742 
0.517517 7.684121 3.082679 
-0.517337 1.147376 -2.803039 
-1.647772 1.231936 1.866263 
-3.660500 3.329440 -0.800364 
2.092346 1.616647 0.116852 
-1.820510 3.777688 2.591648 
-2.266510 4.518108 2.420261 
2.309932 2.330220 -0.408632 
-3.941566 3.822081 0.023397 
-4.000761 5.250924 -0.246192 
-0.763765 7.052080 -3.317743 
1.735718 3.488025 -1.972188 
0.783221 1.611691 1.975498 
-2.449362 5.625205 -2.391373 
-2.418912 6.538227 2.850021 
-3.342469 4.518544 -1.193910 
-2.564132 1.386823 1.700863 
-1.772837 3.897920 2.618945 
-3.573016 3.800446 1.483113 
1.052133 5.126738 -2.274317 
0.195454 1.449219 -2.667387 
-1.324601 2.001656 -2.593625 
-3.644850 6.267348 -1.570955 
1.538043 6.905074 1.979781 
2.001289 7.164710 -1.862522 
0.687525 2.478460 2.743155 
-1.475019 8.211178 -3.068074 
1.394937 0.214173 0.505615 
-1.057674 4.781931 -2.858834 
1.712929 6.349830 2.197287 
1.857081 6.248390 2.020158 
0.269892 1.231936 -1.192313 
-2.126911 7.875272 -3.036393 
-0.805877 4.561692 3.231357 
0.949999 4.094776 2.261797 
-2.031530 3.160841 -2.867590 
-3.348109 2.860924 0.855348 
1.452611 6.516646 -2.463830 
-3.628407 3.646125 0.720005 
-0.141652 7.754381 3.022743 
-3.332994 0.576764 0.518504 
-1.062195 4.980970 -3.235520 
1.843106 1.258922 -1.109057 
-0.915877 1.999848 3.051929 
-0.168004 3.215341 2.702543 
-3.899647 3.386828 -0.283620 
-0.930904 2.672621 2.717359 
1.791021 5.216448 1.415493 
0.535513 5.730775 -3.017998 
-2.291815 1.231936 1.605383 
-1.505060 4.982140 -2.790042 
1.332406 4.630309 2.476838 
-1.975478 5.977777 3.050117 
2.009851 6.218527 1.118646 
-2.918938 3.575939 1.751453 
-3.165798 4.376280 -2.028143 
2.589600 8.047365 0.099590 
-3.172133 1.474653 -0.578509 
2.037330 0.911583 0.335006 
-2.584090 3.467367 2.582842 
1.935505 4.867553 1.048911 
-2.339056 6.176669 2.511615 
-2.776849 0.929841 -1.733634 
1.257309 4.214485 2.005918 
-2.186657 0.690447 2.098781 
-0.057560 1.388350 -2.391145 
2.109148 2.523730 -1.206238 
-0.388896 4.207168 -3.021634 
-3.122641 4.971722 -2.070341 
1.040584 0.214063 1.088791 
0.584798 1.231936 -0.744991 
1.425486 7.631775 -2.174404 
-2.589600 7.673633 2.776585 
0.255586 4.217655 3.055133 
0.162339 1.971570 2.486000 
-1.305836 1.231936 1.326767 
2.531281 5.809510 0.123532 
1.793381 4.028471 -1.229090 
-3.176162 5.877395 1.679966 
-1.899199 3.470344 -2.815871 
1.489018 3.552931 1.665266 
0.395636 1.956656 -2.379198 
-0.160203 4.954857 2.828747 
1.094450 3.261160 2.453920 
-2.911789 2.500870 2.183630 
-2.929834 3.592549 -1.740001 
2.321857 3.121445 0.695010 
-0.094129 1.231936 1.546786 
1.516422 8.212176 -2.203780 
-3.535092 3.807459 -0.330489 
-2.916868 5.766168 -2.461845 
-1.642412 7.968379 2.963836 
-3.590043 2.033943 -0.867200 
1.957533 4.556029 1.766478 
2.483127 5.270658 0.455299 
1.813849 0.963911 -0.631186 
-0.437476 3.310463 -2.753091 
2.028503 1.202708 0.466526 
-1.970819 4.420708 2.940798 
-0.051177 6.635933 2.923204 
0.437685 6.496284 2.750079 
-1.021530 2.776148 2.716551 
-1.855151 6.036841 3.097535 
0.082544 6.625124 2.887189 
-3.887710 5.891037 -0.961235 
1.430094 6.531049 -2.058463 
1.878209 0.716896 -0.524580 
-0.867541 8.212181 3.177199 
0.021386 7.330114 -3.232818 
-3.387669 6.247550 -1.972780 
-2.665964 0.699598 1.819200 
1.949537 2.729924 0.403107 
0.199087 5.359202 3.124905 
-3.142630 2.447049 1.257319 
-0.851427 3.255740 2.763954 
-3.091706 3.171784 -1.934324 
-2.506291 8.212176 -2.700209 
2.298565 6.512571 1.278381 
-3.362603 5.358327 -1.292857 
-1.901040 0.213451 -0.938640 
0.248608 3.812773 -2.623281 
-0.354658 4.578642 -3.069227 
-2.149495 5.396620 -2.560158 
0.235229 7.458394 -2.900406 
2.317622 4.977426 1.084931 
-3.128778 4.217728 2.014363 
1.813585 5.374853 -1.396523 
-0.947474 4.943892 -2.880850 
-3.268161 7.347919 1.725192 
0.023308 5.817621 3.189259 
2.007184 3.181582 0.195007 
-3.487596 1.704185 0.799578 
-3.032002 6.728405 2.392824 
2.052941 6.145468 -0.990367 
0.315969 7.613871 3.156390 
-2.015980 7.052431 -2.754858 
-3.325889 6.772764 -1.562135 
-2.889606 5.437429 2.469930 
-2.610986 0.213835 -0.109619 
2.100630 2.666791 -0.001611 
-2.828862 1.631168 1.385587 
1.451283 0.214184 -0.233441 
0.149190 1.231936 0.493311 
0.304624 3.014897 2.960245 
-2.545422 4.383163 -2.675416 
-2.737726 5.202374 -2.583477 
-2.356673 0.647212 2.107637 
-1.850333 0.721804 -2.480861 
1.053062 5.130287 2.587012 
0.171304 1.890919 -2.838239 
2.167099 6.884121 -0.800751 
-0.363881 4.864594 -3.090048 
-1.217912 0.212422 0.009249 
-0.462731 1.506557 -2.818601 
-0.550108 0.212184 -0.095267 
1.874814 2.958052 -0.808617 
-2.740180 4.968585 2.569124 
-0.253120 1.231936 -1.381052 
1.792727 5.111208 2.037702 
0.356587 6.749089 -3.119468 
-0.658954 3.788859 -3.189531 
-1.792948 5.843563 -2.757418 
0.798562 2.475861 -2.222460 
2.410233 5.090647 -0.792905 
-1.818491 8.054571 3.164341 
0.376113 2.294752 -2.446716 
-0.075962 2.591112 3.031688 
2.042572 6.556758 -1.098520 
0.567672 6.826508 -2.716470 
1.403125 1.582427 -1.853532 
-3.746231 3.830600 1.098461 
-3.683523 7.512987 1.565174 
1.539933 7.804559 2.424581 
0.966523 4.197485 2.611191 
1.614413 2.677402 2.028184 
-1.447577 2.263296 2.598153 
-3.347733 4.488788 -1.911803 
1.619183 1.809911 0.923917 
-0.238678 4.896461 3.206260 
0.853168 2.702924 2.635769 
-2.159009 1.550103 2.461519 
-2.847101 2.523512 -2.280780 
-2.931875 5.988841 -1.996668 
-3.384529 1.953842 -0.060159 
-1.259756 0.413039 -2.685715 
-1.662215 1.846654 -2.741745 
-2.162925 8.212176 2.957654 
1.681228 2.417795 -1.187661 
0.182659 4.181112 -3.075253 
-3.469412 2.941152 -0.351600 
-1.716565 2.386951 2.704404 
-2.685117 5.440850 2.631843 
-3.322517 6.377925 -1.515908 
0.575729 2.140532 2.328793 
1.977769 5.549997 1.072232 
-2.448763 7.251429 2.853245 
-2.011181 4.980875 2.599116 
0.021813 5.963066 -3.194888 
-1.284260 0.214452 -2.416188 
-3.615062 2.783018 1.235754 
-4.032467 5.972406 -0.117802 
-2.352912 4.669565 -2.811027 
-3.453450 5.139730 1.043376 
-2.874297 2.810580 2.288478 
2.442681 3.879633 -0.215359 
-3.250854 2.050719 0.926334 
-3.389341 5.556984 1.267121 
-0.941289 4.217177 2.829996 
-1.043678 5.327888 -3.250831 
-2.833839 1.231936 -0.762662 
-2.000809 0.213849 -1.401308 
0.450594 2.154628 2.397220 
1.698998 0.292941 0.891630 
-2.552934 1.564606 2.188763 
-2.901336 2.431367 -2.153727 
-2.098848 6.271042 3.006236 
-2.136959 0.213564 -0.792246 
1.391282 6.962924 -2.143146 
-3.990700 4.951166 0.225807 
-3.495702 0.464878 0.402782 
-3.259796 4.209984 -2.005473 
-3.994092 5.418365 0.371691 
-1.675572 1.451401 -2.673297 
-2.558672 7.446109 -2.789932 
-1.700215 0.213087 -0.598168 
-0.424081 4.068339 3.059047 
2.307843 7.489464 -0.226796 
-2.241286 7.610461 2.976541 
1.979461 4.529434 0.853620 
0.791363 4.672589 -2.420573 
-1.636462 5.096945 -3.132808 
-3.363101 1.121285 -1.030684 
-2.286326 4.677800 2.847226 
-0.889917 3.690134 3.181396 
-3.344319 1.025523 1.071922 
2.146765 2.277853 1.051077 
2.141294 7.837762 -1.087279 
-1.275189 1.723857 -2.447412 
-1.980296 1.231936 1.024851 
-3.469031 7.234008 1.369222 
1.963031 0.511175 -0.029524 
-3.068106 1.355676 -1.608009 
2.026820 7.155152 -1.242041 
2.420506 6.683290 -0.946980 
-0.582568 8.197108 3.326175 
-1.810619 4.218214 -2.857781 
1.707566 1.816920 -0.672215 
-3.834515 6.578540 1.178144 
2.064799 1.214941 -0.135234 
-3.814003 4.056458 0.939480 
-2.810833 4.915928 2.016156 
1.960019 2.896741 -1.303037 
-0.285186 3.781134 3.054085 
-1.011352 0.789364 2.632286 
-2.449407 6.300789 2.448970 
1.490765 1.764643 -1.152823 
0.107182 6.661491 3.195425 
-2.433219 2.606750 2.131797 
1.425210 0.214304 0.835105 
-0.456300 5.253012 -2.894003 
-1.261126 2.348922 3.041884 
0.758137 1.463485 -2.396091 
0.878912 0.213675 0.521899 
1.989697 8.199642 -1.892299 
-1.567065 6.468794 2.879176 
-2.755336 7.339875 -2.301451 
-3.340621 1.903810 0.270046 
-3.236941 5.249691 1.505567 
0.931142 2.974780 -2.382639 
0.040024 5.741643 -3.182653 
1.409130 3.557590 1.766754 
2.382170 6.585778 -1.064374 
-3.493277 2.678891 1.466160 
1.642968 1.076655 1.476419 
1.651539 6.883039 -2.283406 
0.812596 7.764078 2.659092 
-3.191086 6.390505 -1.720122 
1.583512 7.163649 1.952591 
-0.358286 5.555496 3.167708 
1.844036 2.465492 -0.779270 
-3.191879 5.104509 -1.558798 
-0.989701 6.806849 -3.006907 
-2.349915 1.857726 2.482293 
1.782743 7.244583 1.699296 
0.251080 0.663438 2.418241 
-1.635282 2.073083 -2.880409 
0.619703 3.531919 -2.428550 
-0.449812 1.927199 2.606113 
-0.298055 0.212893 0.817161 
1.886106 5.805028 -1.956692 
-3.082888 1.489313 -1.602879 
0.355671 5.048516 2.676204 
-0.055539 0.212648 -0.021313 
-2.470513 1.231936 -1.585628 
0.099282 3.307253 -3.044515 
-3.499754 4.751820 1.708880 
-0.696816 2.534106 -3.100801 
1.462899 1.651947 1.167315 
-0.617007 1.391750 2.821667 
-1.744359 4.285084 -3.060427 
-0.816843 2.262367 3.077334 
2.398048 5.904738 0.944079 
-3.577048 6.949119 -1.725182 
0.418434 4.902014 -2.636934 
1.218519 2.536459 2.397497 
-1.808895 0.214125 -1.874862 
1.232169 3.714358 2.495684 
2.175860 5.228418 -1.439073 
1.748698 1.658963 -0.152567 
0.242809 1.231936 2.271786 
-1.109610 4.011753 -2.799271 
-3.274736 0.516566 -1.077589 
1.703118 8.180327 2.268206 
-0.827923 2.587929 -3.104326 
0.225444 0.214485 2.310830 
-3.014857 1.231936 -0.321245 
-1.623990 5.037318 3.133840 
2.397398 4.190304 -0.659705 
0.330179 7.063081 3.138235 
0.726871 7.242750 -2.977566 
-0.156014 3.355643 -3.107088 
2.141008 1.902230 0.104681 
1.928069 2.365634 -0.359915 
-2.108288 6.924637 3.020846 
-4.016215 6.339909 0.445681 
-3.936297 8.212176 0.110261 
-2.222362 7.013949 2.971149 
-3.096063 0.214419 -0.670740 
1.110960 8.023150 2.774950 
2.164874 8.106090 1.077268 
-3.639903 2.946345 0.820433 
-2.480448 1.236945 2.221767 
-1.188787 5.688694 3.248058 
-0.760122 1.972065 -3.043810 
-2.343771 8.210167 2.714180 
-3.036332 1.263521 1.644386 
1.762567 1.916280 -0.736760 
-2.234004 4.746067 2.459361 
-1.917352 7.166337 -3.106456 
0.454262 1.231936 -1.073133 
0.919987 1.231936 0.420158 
1.561228 8.212176 2.312976 
1.746490 1.580270 1.354855 
-3.714056 3.767902 0.816314 
-1.075616 1.402731 -2.806776 
2.443218 4.161850 0.370295 
2.087048 4.263863 0.158189 
2.297116 2.076680 0.327702 
1.985635 0.661325 -0.172717 
-3.164526 1.286494 0.572223 
0.009213 6.549781 -3.215201 
-4.066395 7.896544 -0.333630 
1.802513 0.752495 0.013130 
2.079217 6.161693 1.689383 
1.232688 0.214231 1.086017 
1.377366 6.401148 -2.524099 
-2.746824 4.762045 2.064262 
-3.618321 2.199566 -1.095621 
1.954249 1.835705 1.149468 
0.807193 1.872441 -2.397045 
-2.250069 2.242922 -2.684883 
0.180534 0.213329 -1.001551 
0.073184 4.828208 3.138762 
2.204418 6.993753 0.680472 
-1.239529 7.463463 3.021710 
-3.360795 0.359277 0.586089 
