4.271582556248364471e-01 2.328592568758886650e+00 3.445444500907036967e-02
6.632958928210490601e-01 8.103477475439054833e-01 3.237124019086639604e-01
7.560637557417486665e-01 2.092429204024127021e+00 2.963442381392097369e-01
3.884254754461170522e-01 1.965146739543130350e+00 7.237401804879268763e-01
5.031459658263965906e-01 8.141158671615796871e-01 1.285233947409653021e-01
5.406864807114950544e-01 1.518968127492188680e+00 4.467816390578759345e-01
6.783562983083301079e-01 8.103477475439054833e-01 4.821229722936730688e-01
6.595865974144311528e-01 8.591640141734621094e-01 2.122735129147839406e-01
5.485912257953080573e-01 8.103477475439054833e-01 3.698198178336193354e-01
4.781895166180268886e-01 8.103477475439054833e-01 3.809846306920574022e-01
4.577297217619018532e-01 8.803606862248924969e-01 7.426870840232950854e-01
5.681737791602473608e-01 1.923968997789073487e+00 7.145979779104607577e-01
3.841759157259599933e-01 8.525148952907931621e-01 1.666804160456443473e-01
2.852128909552080205e-01 2.257459518428053258e+00 8.699199694528534366e-01
6.004718548834199199e-01 1.902162050854613762e+00 6.867753484030351130e-01
9.507329659720626935e-01 2.296085004987221456e+00 5.238425189883652022e-01
9.981833352491483735e-01 2.492218411835530389e+00 7.254853063878067276e-01
8.059431418540607961e-01 8.103726658454218912e-01 4.565552478404599213e-01
1.359305406316386466e-01 2.451241680895603903e+00 9.293596989543363718e-02
6.728978343819789210e-01 2.305929059371238488e+00 9.234346525676504491e-01
5.910777766831238900e-01 8.214039484360158294e-01 8.650066270953568059e-01
1.206282016300840171e-01 2.201139875607531327e+00 3.958717815809946194e-01
4.751782898756613527e-01 1.090937604679958595e+00 4.441877226572862325e-01
6.883135021283450783e-01 2.204480604451616088e+00 8.178825235727287257e-01
3.844770371642932116e-01 8.644015765698475073e-01 2.137295519209814476e-01
4.005385533830967959e-01 9.126012543085175732e-01 5.702309906236482373e-01
4.645270356022218050e-01 1.694519095109590534e+00 4.151068492761343931e-01
6.578965107925627276e-01 2.460441739842482711e+00 1.001978988046529295e+00
9.412976175267228074e-01 2.407299080546966064e+00 7.738059955349444463e-01
2.652665884885283543e-01 2.023417386267841511e+00 6.621181119883994270e-01
5.235931001046237876e-01 2.215785789143665863e+00 9.837709354861567945e-02
1.003221883406220649e-01 2.217024970893810121e+00 5.522302782465124960e-01
1.442884331844178913e-01 2.424842995833977000e+00 1.425337840270149703e-01
6.624367953278916810e-01 2.090100590435079564e+00 7.516026947762581845e-01
4.931139421639815779e-01 8.103477475439054833e-01 6.233389718075841301e-01
3.796102194519743178e-01 9.120511395206215566e-01 5.279510335138516419e-01
4.291651440610265711e-01 1.783753785717044016e+00 5.848517384150884180e-01
7.560117820570368963e-01 8.725123061259144608e-01 6.057958644326374431e-01
6.560820743708527525e-01 2.204459665742554808e+00 8.632969060413544504e-01
6.240403585388888397e-01 2.329577710126259138e+00 7.164636015788367063e-02
3.759206752342844626e-01 2.208739385851685721e+00 1.218027565291933678e-01
4.548290226236983980e-01 2.252796948971063085e+00 1.035559508688245617e-01
9.258175365073341156e-01 2.260185928418659618e+00 5.554978409843656095e-01
6.666929367923644101e-01 8.105374230839764715e-01 7.868990818279095745e-01
3.939945261242281949e-01 1.760296115839011355e+00 4.277523183034625531e-01
6.931554826115057244e-01 1.970416937960947745e+00 6.175772747849104238e-01
4.120538664338770363e-01 2.040112149410971742e+00 2.179924384901389955e-01
5.020169493628323654e-01 1.790883119032467219e+00 3.540250523611900291e-01
3.600421163791200918e-01 8.844736856206967257e-01 3.171657650754771685e-01
1.800263418587023934e-01 8.613940722515625037e-01 4.831009253568365192e-01
2.717644233736325465e-01 2.491762604288364713e+00 -2.211744786812170835e-02
5.749685513980308249e-01 8.103477475439054833e-01 5.845333140238427871e-01
2.365957304003825090e-01 2.214054554610510372e+00 8.027184517444614364e-01
1.867501615707376217e-01 8.620503420533955907e-01 5.540534865652997354e-01
9.022647751836921914e-01 2.216615083486261017e+00 5.214203903290428599e-01
6.465309596466089874e-03 2.467061360447914353e+00 7.553085122011834462e-01
9.147382550739349139e-01 2.250422564045647000e+00 4.144959380832174412e-01
3.743332401099965234e-01 1.923685718755309138e+00 6.522680241878709984e-01
5.027461344372553542e-01 1.970447831736476640e+00 2.468060880215538488e-01
6.105148869870676842e-01 2.406829497481494329e+00 -7.155759610444365447e-03
8.108907769859098336e-01 2.275847075838561828e+00 8.099552445445568072e-01
3.117614314454972280e-01 1.872824574725003632e+00 4.511486925994510067e-01
3.274791530296323194e-01 2.395970247002222386e+00 9.825277819948473601e-01
-1.114322643451250497e-02 2.448348542197088751e+00 3.127378960232435334e-01
2.354295775801025781e-01 8.246315724894267563e-01 2.317431651215434152e-01
9.373088176195032428e-01 2.358441126551449774e+00 2.800953171312051126e-01
3.040259361623563472e-01 2.078966772215708581e+00 2.826154748072976508e-01
3.846508568328066424e-01 1.982046979048547541e+00 2.667428832950571871e-01
4.512212323168224848e-01 2.462843228459520084e+00 1.025475967878797912e+00
9.755223627814255671e-01 2.499973933907886803e+00 8.033212041709206774e-01
8.243368377921380663e-01 2.453368382337324682e+00 9.088096177880344850e-01
4.097423907826839296e-01 2.240857638117358608e+00 1.188294366862029244e-01
8.106223473991754913e-01 2.211730811760344917e+00 7.517738501920406824e-01
9.669903837691370962e-02 2.321121582047387832e+00 7.347409840826778504e-01
8.759385489854988327e-01 2.332551061086680644e+00 7.880936312358408635e-01
7.119291667435944104e-01 8.103477475439054833e-01 5.843062995430119422e-01
4.432503452185160842e-01 8.103477475439054833e-01 5.963984987315196218e-01
5.218703815835913362e-01 1.063711159823565344e+00 5.566371409039938545e-01
6.313280570983339501e-01 8.103477475439054833e-01 6.926049065771072710e-01
3.525126393114025869e-01 2.018978222656805599e+00 2.589596209768907364e-01
4.441472605883697855e-01 1.238854734404753355e+00 4.705858733084359868e-01
7.137019437335627714e-01 8.886965894090672613e-01 5.062294079223976784e-01
5.192777482975921011e-01 9.669324533231864471e-01 5.720954700909919310e-01
8.208024926851419378e-01 2.264167832496691624e+00 2.511962354597092606e-01
8.504930819277004561e-01 8.195742565421963999e-01 3.649859020665829346e-01
6.424080826609565031e-01 8.103477475439054833e-01 5.227533180735245422e-01
2.573888598488677792e-01 8.103477475439054833e-01 5.163989641482844561e-01
-1.811901468554751732e-02 2.447892301807475413e+00 4.815976575731191756e-01
7.731122207171049476e-01 2.306784792427456932e+00 1.324445578133555124e-01
6.927341709396036551e-01 1.904714436927672283e+00 5.921046231649248481e-01
5.320248477082728522e-01 8.572427176142686234e-01 8.348182566110941005e-01
2.028514933005753917e-01 2.335404300235263797e+00 8.710525070134209624e-01
7.483936527781631654e-01 8.353307134671610346e-01 2.180704746397679195e-01
5.017283595228712034e-01 2.472599913228304302e+00 1.058964836214001393e+00
5.256550214625483886e-01 1.457398994222231403e+00 4.390446271951679580e-01
5.045083900044349257e-01 2.195209263002705136e+00 1.362357102685576304e-01
3.516993611848745482e-01 2.343736885234450007e+00 9.570207388031142237e-01
5.523546108497086049e-01 2.212651267289826418e+00 8.969672293981637567e-01
9.640768428900756692e-01 2.410754236589364385e+00 2.622017502917523002e-01
7.233639033777312655e-01 2.381896520674797735e+00 4.841454906584619078e-02
2.475268818619764943e-02 2.499926524698579122e+00 1.941492731897539736e-01
8.244520640081494101e-01 2.496754243563960696e+00 2.915509140390830714e-02
3.628295251562793644e-01 8.103477475439054833e-01 5.132668580077510700e-01
8.426925230165485114e-01 8.529198589252096063e-01 5.786100784687874254e-01
4.393136498846617610e-01 1.873110621044514978e+00 6.547911999620573686e-01
-5.402923620691597525e-04 2.420417825266349965e+00 5.317766121793583434e-01
8.003795370032605883e-01 2.356865467862387931e+00 8.852638559811374375e-01
7.080473889322573822e-01 2.090121196214941079e+00 7.154361317407297305e-01
1.392328499954864629e-01 8.494158770319669705e-01 5.242689084231176855e-01
5.506453468026057951e-01 1.285768112336144409e+00 4.612591756311064106e-01
9.711924372924654048e-01 2.418232149424615507e+00 3.320328548641437449e-01
6.024841144934950377e-01 8.999512943131581233e-01 6.353620138159190578e-01
3.786757944427483480e-01 1.814962250378634012e+00 6.045543923387134422e-01
8.892440202456058929e-01 2.349557070060769082e+00 2.122507322725349643e-01
6.106601232774387933e-01 2.146785567366688685e+00 1.571617675076408815e-01
1.052450978442108775e+00 2.499243820987450349e+00 4.470743695400261064e-01
3.999013830707529582e-01 8.103477475439054833e-01 3.215812687660562497e-01
9.908330011253988490e-01 2.365879222890550082e+00 5.559110673028234695e-01
2.691402546344265345e-01 2.474017248414785097e+00 1.009966870014336937e+00
5.963939879173666414e-01 8.105942044098306543e-01 1.796749785148067935e-01
7.650829174187993020e-01 8.629434377938767220e-01 6.690475316702686470e-01
3.368912671748380272e-01 8.605431288067030282e-01 7.796108531824451626e-01
8.488512822023349669e-01 2.395567624644085125e+00 8.749735922480675887e-01
6.915042363128878211e-01 1.915867420607201943e+00 5.205869772909618165e-01
8.863852752016490033e-01 2.326580489583844447e+00 7.190381177776257182e-01
2.207798501566020644e-01 8.657943055003666233e-01 3.817030401434746700e-01
8.519155058951757842e-02 2.257064675874620008e+00 3.964481695859281563e-01
5.712403925310730601e-01 2.072521202229573145e+00 8.069127712549977183e-01
4.570773944543427558e-01 2.041172746609101640e+00 7.660749690207655505e-01
1.511642671731079635e-01 2.210010514675593729e+00 6.932668561814525621e-01
9.819460050023701703e-01 2.346123553846067189e+00 4.987763824103547128e-01
4.160962880812266729e-01 1.855293169150685095e+00 3.693734846259392191e-01
4.088957503393790827e-01 8.106459724356799290e-01 1.729987562794944589e-01
8.708683756755170036e-01 2.292255666691304761e+00 2.468956832495339815e-01
2.354728866006978727e-01 2.425958608617967194e+00 9.301181492325866218e-01
6.321358101405163410e-01 8.514865891623772942e-01 1.693066478628966753e-01
3.046264201362344215e-01 2.094579915840526940e+00 2.359063393214272109e-01
9.475753318227926325e-01 2.453152937854855775e+00 2.318723205658109743e-01
5.274050521336862696e-01 1.131830774672324180e+00 5.552124519191520280e-01
7.206170076761171384e-01 2.039812493300687368e+00 3.038294602545873468e-01
5.447394006067474148e-01 9.072240853729535148e-01 3.657761524410790277e-01
9.011759579635357786e-01 2.288000981452791738e+00 6.957900044764625536e-01
1.436090195756837828e-01 2.183272647338402095e+00 5.092545501136721553e-01
5.286129235097306589e-01 1.444826944206671904e+00 5.594323711594354487e-01
5.036402141828482115e-01 9.190461519797330503e-01 6.046119787991024452e-01
6.474242327231588545e-01 8.103477475439054833e-01 2.512067198209488317e-01
3.257873301687683187e-01 2.288803184058398443e+00 8.832959164250069328e-01
8.253600293517671105e-01 2.151679823868444252e+00 5.884861515098093188e-01
4.804767054273922922e-01 1.676851731252545719e+00 5.809802045376468715e-01
3.037958803790647977e-01 8.696658600833908626e-01 7.109684036912643501e-01
1.092454490375716902e-01 2.244874746461514636e+00 4.482295675831499682e-01
1.735229606753488363e-01 2.241891353450716551e+00 7.614207290056993482e-01
6.804187601437990951e-01 2.408646026871479773e+00 3.975996045560122732e-02
4.464156533160809626e-01 1.961860961653848934e+00 7.421796591178196900e-01
1.016344902711820541e+00 2.457009253583042785e+00 3.116983191424047561e-01
5.022582717703891753e-01 2.043005433184956754e+00 2.293710897379653280e-01
6.555755164877046237e-01 1.970098979416588403e+00 3.361480740773487574e-01
5.387378182974169594e-01 2.324486803961793857e+00 9.670976349223500135e-01
3.938219548375841983e-01 2.012158293511774776e+00 7.574309513352456280e-01
7.429552777132880648e-01 2.233912846253188977e+00 1.981724775162910512e-01
4.806352348070884739e-01 1.200714560419830379e+00 4.404775910101445535e-01
9.958054443942987444e-01 2.428373196954447533e+00 3.967565701032621517e-01
8.843308034373461579e-01 2.475689629526312441e+00 9.163085475696330917e-02
5.136490702141389697e-01 2.284449274259054530e+00 9.440343279181339087e-01
5.388849084558455793e-01 2.058246997788088173e+00 7.772693911466083128e-01
5.160589180492201056e-01 1.922064684471634033e+00 7.234523971665430819e-01
7.572420189796615908e-01 2.499759739613085952e+00 4.516376242553615111e-03
1.214031805225620209e-01 2.270331369798849863e+00 6.567343589069071230e-01
1.574495310020773420e-01 2.494320830907688524e+00 4.313874850681582301e-02
7.441641013220642864e-02 2.435723458611529946e+00 1.730366863476200112e-01
1.023337860183590520e+00 2.490142832118046989e+00 3.467400988388681382e-01
3.698807447251395430e-01 2.426336180660744635e+00 1.014791299524364643e+00
7.312650336495033487e-01 2.220092582926964209e+00 8.002853327684270601e-01
6.581220198491847251e-01 2.018271015411678082e+00 2.663149162858475805e-01
2.858458952992179447e-01 1.906487082471275185e+00 5.149164601130962193e-01
7.127668697637452588e-01 2.037940782798103534e+00 7.030425736165827333e-01
-2.239385808008383105e-02 2.490685813796986725e+00 7.262947728336506259e-01
4.162597501346607665e-01 2.426301024248365135e+00 -2.428745423156708147e-02
5.630887132958130037e-01 1.573695154516932870e+00 4.751216317683453760e-01
5.501415247601001424e-01 2.334890335262473027e+00 5.360602084500269704e-02
5.469376886375100222e-01 8.103477475439054833e-01 2.985855824427103844e-01
7.019854324239790944e-02 2.471126753784236296e+00 1.440057294073582572e-01
4.723387191598112933e-01 2.087571858628075816e+00 7.966488546916449254e-01
3.599278775813469777e-01 2.106749526558402863e+00 8.052844428776785302e-01
4.958837057921551272e-01 2.496944812112771750e+00 -7.183153594813193599e-02
5.285858025116303427e-01 1.768178758956123309e+00 6.297344240677190674e-01
1.383513824778353218e-01 2.496684960237065543e+00 9.429260697654898715e-01
6.764811715844338824e-01 2.027638693034436557e+00 3.074004748201782378e-01
5.884271183949514317e-01 1.687436533370597402e+00 5.016827685931813940e-01
2.178466005735949229e-01 8.597832452882518961e-01 6.645966264795195588e-01
2.780864327589303575e-01 8.750090137348272012e-01 3.510609149769543524e-01
8.539910743886859334e-01 2.186690155391610713e+00 5.571901605167922655e-01
6.897907925783630656e-01 1.935833639191003375e+00 3.660111179681596050e-01
4.341158510654227198e-01 1.675470551022384180e+00 5.499247177072983384e-01
7.660218764466937280e-01 2.288620027037304272e+00 1.737883841462105061e-01
2.477793881936239395e-01 1.969626918594743925e+00 4.842517491528592344e-01
4.542050572494590877e-01 1.317024298320116138e+00 5.449885244511939453e-01
7.384485430281133578e-01 1.994438280871266622e+00 4.659392981401999090e-01
6.759071322255852943e-01 8.103477475439054833e-01 4.237357689942514161e-01
1.702445757513070534e-01 2.140051480981575605e+00 5.142001855184858972e-01
4.419757558094885019e-01 1.078081369893975294e+00 4.814970442320543054e-01
2.259071705675188280e-01 2.222423693451311522e+00 2.361592121058391225e-01
8.355596563605564853e-02 2.495944440969073863e+00 8.916504341784857735e-01
9.332718711314756943e-01 2.368602018773374063e+00 7.407573721029793168e-01
3.630747922357033253e-01 2.110434965668317897e+00 1.908153770046859266e-01
4.567691636141181233e-01 8.926989453569623700e-01 3.066451143014763958e-01
3.093220730160983201e-01 2.060555018794683058e+00 7.069370884120929066e-01
9.912005478674486975e-03 2.402424093626762680e+00 4.792571361663301999e-01
3.419240590317756401e-01 1.833754517967355113e+00 4.341652222821801299e-01
2.498670435686376756e-01 2.218254718798438496e+00 1.829633194414432285e-01
4.320765431783783472e-01 1.583085762726598178e+00 5.031988772864023352e-01
8.442362683027322401e-01 2.278698906396106505e+00 7.315388515812863979e-01
2.165856161996885798e-01 8.103477475439054833e-01 4.337518233401302381e-01
1.616331895053923703e-02 2.454792020631457738e+00 6.979009903606889775e-01
2.881813985797053723e-01 8.103477475439054833e-01 3.247606948439297758e-01
3.350483102663541768e-01 1.898057541632315326e+00 5.760748920560526676e-01
8.744570072242427994e-01 8.369701324595976155e-01 4.777569161394251696e-01
3.346346056684905146e-01 8.294068632964660681e-01 1.613665653627808783e-01
2.976317983471706285e-01 1.984181339602774319e+00 3.813906718041336630e-01
2.742293812682710108e-01 2.093937368241206354e+00 7.380847192063881845e-01
3.161898502413301171e-01 8.233658713907664461e-01 8.286678192581214963e-01
9.382299516534137185e-01 2.323905485660178627e+00 3.347732475104860939e-01
3.667659060489852352e-01 8.103477475439054833e-01 6.623574859375827018e-01
4.581024938733453400e-01 2.200277202981506974e+00 1.355103524539935100e-01
4.760291074319402682e-01 2.140958067539173726e+00 8.558955711459986793e-01
5.023983748005219629e-01 2.140510200551465569e+00 1.435827819179845144e-01
3.938540299911110626e-02 2.355651691615398668e+00 5.347765386366543083e-01
7.287309415868680196e-01 2.181916783340375421e+00 2.276465081077619357e-01
8.864536090796454326e-01 2.409955790710856416e+00 8.095365104613313489e-01
9.446039779679842319e-01 2.488309551337744896e+00 1.465115909589451149e-01
2.993850786024687127e-01 2.034902379788277926e+00 3.258173835090979464e-01
-5.112778220498121612e-02 2.499727679708652506e+00 5.874703468636630621e-01
3.693025018878455246e-01 2.292451694872657431e+00 9.297184543442312821e-01
6.544714980244783487e-01 8.103477475439054833e-01 3.743265597431712499e-01
5.146383707619190950e-01 2.066090124503991543e+00 1.891719034733550520e-01
6.792117689776233647e-01 2.258714794529268488e+00 1.107515171149603961e-01
7.699902077004093792e-01 8.103477475439054833e-01 3.738489327108519555e-01
6.689843364571831374e-01 2.404610993435427613e+00 9.893310415966586335e-01
5.195998000702409247e-02 2.438278104208420505e+00 7.983170443765013058e-01
5.926755988970754396e-01 8.103477475439054833e-01 3.876806792070067731e-01
2.011439630035675441e-01 8.103518282306834131e-01 5.229262623559152168e-01
4.812894505847538085e-01 2.199442667406153351e+00 8.919134038735812009e-01
9.403926415504648695e-01 2.285966923059961076e+00 4.347850286198249314e-01
6.253293785980541530e-01 1.944415290629177617e+00 7.017246042803733097e-01
3.442792810680669890e-01 1.942138443802138736e+00 3.609469550717823716e-01
2.515933843415659732e-01 2.013623849544559530e+00 5.460142845465963957e-01
4.589688938194314560e-01 1.986988682669381223e+00 2.672800647599493651e-01
1.350905090737218039e-01 2.200537807122893597e+00 4.603576411148181946e-01
4.104400712685848385e-01 2.327112493474884136e+00 9.617067254698458134e-01
5.690824657195624470e-01 8.886490043502339731e-01 7.025110780575415381e-01
8.910014857725854220e-01 2.264267907283016523e+00 3.164937041496166947e-01
6.398337651556925687e-01 1.834030715356293806e+00 5.250257457483687995e-01
6.433640476332068703e-01 8.973355780781498980e-01 6.088436811525771430e-01
4.378020899240550046e-01 1.196583740797450446e+00 5.064850470985445829e-01
5.827937799635851679e-01 2.149840077310089193e+00 8.525223000899402326e-01
7.026662582767654319e-01 8.103477475439054833e-01 6.370817600891851562e-01
4.347911124130153238e-01 1.536083578259287652e+00 4.836074832718877947e-01
7.548265798655090508e-01 2.132266884712169297e+00 7.021837449432092315e-01
7.200610429102777266e-01 2.357829796125499922e+00 9.368189517087710527e-01
8.743032694766483814e-01 2.226336588913019110e+00 3.357162779735513025e-01
4.614680091512544102e-01 8.103477475439054833e-01 6.843782828692263065e-01
4.024484436146851252e-01 8.951440523683308337e-01 3.386262175182053746e-01
6.232868526401177389e-01 1.798959908593334767e+00 5.867461267688873772e-01
6.036581751749856561e-01 8.103477475439054833e-01 3.213999956440787842e-01
4.612733312973563149e-01 1.596529407744816664e+00 4.437281386866466226e-01
8.751601791577300338e-01 2.218868004263827132e+00 4.516123248578396976e-01
7.231692991053900732e-01 8.647080687026331702e-01 2.884363937325904459e-01
5.593529358725291001e-01 1.915927964377521553e+00 3.167221142842288062e-01
8.337171037517104866e-01 2.186883667661417618e+00 3.086194155786753379e-01
5.985168792832116225e-01 2.377302583127208102e+00 9.648153083028159216e-01
5.000237415265089691e-01 1.654153697240914322e+00 4.258782310199348276e-01
3.613884980865039176e-01 1.956748670225073372e+00 2.980603052923894714e-01
1.982308679245027849e-01 2.453367742205224467e+00 9.567229189625306995e-01
7.753842452039697575e-01 2.187899945050185035e+00 7.308162413049622552e-01
4.195352392903894390e-01 1.925582120601219138e+00 2.886620631287309946e-01
2.301816875195648315e-01 8.131777359101728386e-01 7.524247914485634459e-01
6.213630688783203793e-01 2.315678146584744468e+00 9.471559506466927791e-01
3.889682087253747422e-01 8.378139213558966070e-01 8.579381933498210211e-01
5.053814408691654769e-01 1.557694845204478540e+00 4.326730593830387939e-01
2.652503448533706787e-01 2.127332111972665363e+00 2.791986890220030104e-01
1.815889069621133209e-02 2.346085538127348435e+00 4.917317209882914875e-01
8.386012276773071594e-01 8.106399099006160736e-01 5.232460099030301626e-01
6.487391469824628221e-01 8.708636249023389286e-01 7.412650871675583453e-01
4.319162301078414146e-01 1.647781076720762128e+00 4.750262605996642962e-01
3.513410145325424616e-01 2.280952194447186887e+00 8.361315724024992457e-02
-4.608126036675084386e-02 2.498494695467398330e+00 6.685115956002077864e-01
6.283133574882552308e-01 8.725569596708525610e-01 2.547143736297181604e-01
3.903584133436496795e-01 9.160722810199763977e-01 4.809479739145686161e-01
4.676492078598753488e-01 1.482687023758882505e+00 5.580826682265725980e-01
2.473462550301412655e-01 2.086085518250356596e+00 2.982574008283047085e-01
6.828885709114820290e-01 8.952005814521361016e-01 5.450113995464441752e-01
5.059840303656869542e-01 8.675065162522455076e-01 2.035128758241336877e-01
2.215720196143908804e-01 8.103477475439054833e-01 5.790191948668812483e-01
9.036247536551462733e-01 2.299270406756333873e+00 6.406404985528045826e-01
9.389588773716748271e-01 2.334500959584357105e+00 4.057227844629955893e-01
7.026364894821869322e-01 2.305530092776155726e+00 1.192918288408812144e-01
5.430033421078340750e-01 1.679115613446418465e+00 5.725611700389106051e-01
4.952332126529085388e-01 8.103477475439054833e-01 3.064665313061241680e-01
3.369075055843592792e-01 8.876682931960461209e-01 6.443481685075450605e-01
4.204730574470926796e-01 1.747323616925099410e+00 4.662401894743645747e-01
5.151708841490955093e-01 1.170855843807359520e+00 4.396933216628287622e-01
8.427082250666567687e-01 2.253907133511489302e+00 2.942653430420352767e-01
5.670379443142057330e-01 2.395187801338467981e+00 1.007520523249684441e+00
7.362129657404144212e-02 2.397699086822304260e+00 7.365983473630729472e-01
9.716705517325487929e-01 2.360947523800824399e+00 6.363774090352025681e-01
1.166870038829480177e-01 2.371455250058644548e+00 7.746731247361112738e-01
4.572511769449728591e-01 1.025039713292777321e+00 4.573987064223189458e-01
3.933700860828168722e-01 1.731354653283310396e+00 5.338707886718463413e-01
7.511885200975437771e-01 8.539856848499658426e-01 7.410972385876405388e-01
3.744332756566483567e-01 1.874344600306033337e+00 3.898688381495410415e-01
6.742637688892157977e-01 2.141014197757270754e+00 7.809970249964103273e-01
6.615375082773405913e-01 1.873730810522368451e+00 5.409570196424675625e-01
8.160194196712994286e-01 2.076707302148550038e+00 4.680906781238334258e-01
8.997320051142487785e-01 2.287672341276848709e+00 3.699791901326626720e-01
5.947194571060946400e-01 8.103477475439054833e-01 2.313343380584221287e-01
7.626952923509522364e-01 2.359787370417757657e+00 8.599777534517231981e-02
1.665425216677279829e-01 2.368674856989968269e+00 1.331642174322987815e-01
2.683771908269200202e-01 2.273359713475449073e+00 1.597680345180796935e-01
7.000316822978861486e-01 1.884224835269357357e+00 4.773915270019770118e-01
6.136204920492244197e-01 2.092518810340784796e+00 7.787011345902916659e-01
8.598463122106844159e-01 2.426541762178802131e+00 1.094139528060401600e-01
2.274243883069274608e-01 2.133721665327590333e+00 7.232094653931882000e-01
3.284485997413990055e-01 8.103477475439054833e-01 5.814409523122957557e-01
9.642934360590348364e-01 2.444858134572467812e+00 7.264196216555289798e-01
5.170539742407153083e-01 2.087893963721133339e+00 8.239768608503689196e-01
2.081220768702953805e-01 2.098282321504995274e+00 4.132530798805819638e-01
3.929133628330261918e-01 8.103477475439054833e-01 7.846810344256540670e-01
6.865045879394183759e-01 2.269369021081803606e+00 8.930454770490972027e-01
4.797044644765090515e-01 9.009067136760841032e-01 6.648190793125857700e-01
5.511188750947797477e-01 9.040244993207862123e-01 6.451522792802695250e-01
5.039492332467281344e-01 1.269041226146907508e+00 4.365888559268787938e-01
8.044316304441372356e-01 8.637209658400573087e-01 4.347050530355146547e-01
2.465514442086111369e-01 8.757853340169051704e-01 5.746591175915701788e-01
4.549756394812177196e-01 2.372531212751371132e+00 3.959189472275099347e-03
4.376477718074640033e-01 1.904980266187656035e+00 7.044767292333001807e-01
7.858780859163316812e-01 2.086524974940662691e+00 5.815761144557963780e-01
7.915942010309834354e-01 8.677105563682189215e-01 5.494038463755903656e-01
4.679097249164079209e-01 2.307459787669509765e+00 9.312698031131744214e-01
-5.216614134848296391e-02 2.462583507882530220e+00 5.301122260331787572e-01
5.427002484153532480e-01 1.632213993925639706e+00 4.443363535070078418e-01
8.293655921900801031e-01 2.479215783501675041e+00 7.449388934567546805e-02
5.327418446098928229e-01 8.103477475439054833e-01 7.721342560185776582e-01
1.014797366047783589e+00 2.497987123276647736e+00 2.507014070537024186e-01
2.014540655002810265e-01 2.475545107928482480e+00 5.512271864693595036e-02
8.217006949411569394e-01 8.610157556596436113e-01 4.893232340023160321e-01
3.219069979672620208e-01 2.370569444345592913e+00 3.611163193999383098e-02
7.766445285344248939e-01 8.103477475439054833e-01 5.263358058450486876e-01
5.116685507399281185e-01 1.603311975517224708e+00 5.675304874774039776e-01
3.013223633463680273e-01 1.981747091210506406e+00 6.677733012074413832e-01
6.158884033798359692e-01 2.256856200972367166e+00 8.844269157583359853e-01
7.435752620307032323e-01 2.001513381881064202e+00 5.282815373863588571e-01
5.620680324916662585e-01 1.807031026706159782e+00 3.574448967011384926e-01
2.244618471503675994e-01 2.383414165092970105e+00 7.711590607920897067e-02
4.161270424885825103e-01 9.132455670204049358e-01 4.146605511867014759e-01
6.572093337166012850e-01 2.447666929843602901e+00 6.118683169487600798e-03
5.521773369547660071e-01 2.125623367272865050e+00 1.565636852816192359e-01
1.957397406547803920e-01 2.191179290119489309e+00 6.949127962004032488e-01
7.274524416492810230e-01 1.932974817152375735e+00 4.621546240487821033e-01
3.717328380212199801e-01 2.066208849675136072e+00 2.456375570013238363e-01
1.066684909833460759e+00 2.499801064936912010e+00 4.952274469181082717e-01
4.275803771789422614e-01 8.103477475439054833e-01 3.982528784073698924e-01
7.750790524691633099e-01 2.106428931615601741e+00 3.582067202695210506e-01
3.439180704121274079e-01 2.152291300670998719e+00 8.284246375587107636e-01
3.170002837991727218e-01 2.304043872528165338e+00 1.104833008324749427e-01
3.131359531547628916e-01 8.103477475439054833e-01 4.227900240500321316e-01
5.411803886938277852e-01 2.397846746713302668e+00 1.402740102961524266e-02
2.360084918768715900e-01 2.329244888887703091e+00 1.408100898998582984e-01
5.589334482273168314e-01 1.168908902827326068e+00 4.802603156924190597e-01
6.289007952690093273e-01 1.844330427427695041e+00 4.263394478516896458e-01
5.532609708918562186e-01 1.246751884124829513e+00 5.340682664336231511e-01
2.624731463655536334e-01 2.102243871509207551e+00 6.943923980465452894e-01
7.341223638017553288e-01 2.330927462763011881e+00 8.805269605120649157e-01
2.751744106352031483e-01 8.707456072155213000e-01 6.733560719299596098e-01
4.439544124399348868e-01 1.886979894841559924e+00 3.049402228754981570e-01
8.450502675389937046e-01 2.163267141108564662e+00 6.344191903150536715e-01
7.095273999732583381e-02 2.492474175484880927e+00 8.393584800180095007e-01
8.364957148205304227e-01 2.140905479902027952e+00 3.817524418511175632e-01
1.786695198567324339e-01 2.499310843279357375e+00 9.704779280035558120e-01
8.449863276651400357e-01 8.388009485337409865e-01 6.453257469642671440e-01
4.744405916110299160e-01 1.824949386435953169e+00 6.640329302377385723e-01
4.005974423075636670e-01 2.295774718011333260e+00 5.989826210505605486e-02
6.267458573320310311e-01 1.968962379534461959e+00 2.818244172863376140e-01
9.189833782899161641e-01 2.447095054490080024e+00 8.463822356047129292e-01
2.560458731061667215e-01 2.186597429076435617e+00 7.627296658400456453e-01
6.212321577159326536e-01 2.264058453328902765e+00 1.126287608715878519e-01
1.019410878169720869e+00 2.491668070944796032e+00 6.696736066493444994e-01
4.989898450483478132e-01 1.920223844695008175e+00 2.770790708089319598e-01
4.104464452179771294e-01 8.800624291046774683e-01 7.307363293409558924e-01
1.617130246686196426e-01 2.131161570639357183e+00 4.073429482767915166e-01
9.781755067762342160e-01 2.466552424653962294e+00 2.713260170152873019e-01
5.609872183941589929e-01 2.171957201367259227e+00 1.293933216690596466e-01
5.858874641803641925e-01 8.103477475439054833e-01 6.313253714341358069e-01
6.377331032766887509e-01 1.790990695778351238e+00 4.514128382531190087e-01
3.296275934683928766e-01 2.338953986229824977e+00 8.166926535073767979e-02
-6.370829126648482055e-02 2.481945572507413100e+00 4.706544129147355870e-01
6.612410155406870382e-01 1.992417610451797216e+00 6.772845478050605328e-01
3.462015427789150723e-01 8.103477475439054833e-01 3.016836893244436157e-01
3.591389865193181929e-01 8.103477475439054833e-01 7.462070484155447492e-01
7.830109805085154751e-01 2.030050179867347815e+00 4.400091782389246586e-01
4.564182229592232409e-01 9.773180341161091800e-01 5.526888486825939362e-01
1.852989251813348393e-01 2.122250275305030076e+00 4.468005117533513371e-01
5.572008768541962809e-01 1.577424417797159695e+00 5.365662475461684400e-01
6.278400639052356125e-02 2.319789520979984587e+00 4.508595852016775152e-01
3.369551522844752012e-01 1.941085178162704761e+00 6.293360699294228144e-01
7.895461567326558794e-02 2.332012458676996580e+00 3.485170360937435152e-01
1.013401024765663072e+00 2.431444759381776066e+00 3.528504358269161645e-01
1.831662649939200804e-01 8.154427278557625502e-01 3.030413511503547430e-01
-5.413283641444586319e-02 2.499972152300505179e+00 4.078852689469242288e-01
7.691039018324803411e-01 2.251996769550839161e+00 8.282348478971193195e-01
2.164713580042919860e-01 2.257169674148487903e+00 8.200494191701851454e-01
8.470068286007548242e-01 2.192687527316944163e+00 6.741323744615378422e-01
2.191855997365532160e-01 2.068234008042600269e+00 3.629768276173974684e-01
7.281607935454881275e-01 1.956373830961073201e+00 4.115018285834896039e-01
5.928281866031677172e-01 2.288125892646299508e+00 6.327360231814883884e-02
7.503263927378721609e-01 8.104006607076840174e-01 3.077795959989933494e-01
8.845039277245382303e-01 2.187077586736799972e+00 4.847386813137213868e-01
5.593568451658665897e-01 1.707976782075084854e+00 4.206790230548080323e-01
3.827375728033172719e-01 2.492228367658063881e+00 1.034127514419850513e+00
8.717505005196660717e-01 2.454547586524050473e+00 8.672785237604792030e-01
6.218533630792273392e-01 1.882831620356413049e+00 3.408209294762787889e-01
5.089615960479354495e-01 2.384898897881808200e+00 9.797194169485161641e-01
9.388321724382554523e-01 2.405188786607138418e+00 2.246495152806343709e-01
1.643793609821264101e-01 8.106252582298227871e-01 5.704578750936556419e-01
7.912177044915141844e-01 2.417341678601830690e+00 6.257732810965910275e-02
4.739307136893161632e-01 1.338477107130516597e+00 4.410040474970399194e-01
4.538080814790531603e-01 8.580673997324884672e-01 1.700245846492579593e-01
4.740563348761128726e-02 2.300907714429657691e+00 5.391789320346901393e-01
5.076991227864717793e-01 8.884516504511332791e-01 7.146007569477587085e-01
3.142542688954740038e-02 2.499549319185971896e+00 8.004510255638921379e-01
2.394474534792642995e-01 2.053871123796449094e+00 4.050878421012650277e-01
4.185236133741805920e-01 2.018459301274791784e+00 2.577314368823703794e-01
3.207671985423438121e-01 2.488051454164390996e+00 -3.885834309105574980e-02
4.694004277533005420e-01 8.744286813169585004e-01 2.322306895523155723e-01
8.824584836743415428e-01 2.244215776240850335e+00 5.937211048896925414e-01
1.273321226167481723e-01 2.346208945284373293e+00 2.369515226930699603e-01
7.456685858704710235e-01 1.998580340739182226e+00 3.874680189313373657e-01
6.075775346006127009e-01 1.837293260652372862e+00 3.640858137650810344e-01
8.670241205862451450e-02 2.434869278784636215e+00 8.415739736179991271e-01
3.025512525294987154e-01 2.149199131180772770e+00 7.714295601766982813e-01
5.132383223141606665e-01 1.738337847487561483e+00 3.849368556998684632e-01
7.388287390782838360e-02 2.254868748314455384e+00 4.930731786770938818e-01
6.605417047861340540e-01 2.349866985174413170e+00 9.568381054272631081e-01
5.756271079803345625e-01 1.974692352549489271e+00 2.556581517303948559e-01
7.213651737783837170e-01 8.112065253887205118e-01 7.778258520556782241e-01
7.221528229714785363e-01 2.161562682298582061e+00 7.949588037640986649e-01
8.835987143867422011e-01 2.451872034178538495e+00 1.475698071895274466e-01
3.972544123018850182e-01 9.035721283016269201e-01 6.169138732079438858e-01
9.298764659791025622e-02 2.288443130117356894e+00 6.068561647324437480e-01
3.094675044134290731e-01 8.932042759388193476e-01 5.465643084635292137e-01
6.045235181545499659e-01 8.103477475439054833e-01 7.825743622489453877e-01
5.267589771272251919e-01 1.956611401907306647e+00 2.839805836745406542e-01
8.575532501386923245e-01 2.373707485907103898e+00 8.096044485405841096e-01
4.488754435868504977e-01 1.148637935461173321e+00 4.651493268203076847e-01
1.827118755161686314e-01 8.105811727433692715e-01 3.838564398508945708e-01
4.570957718339135889e-01 1.460131460088161415e+00 4.496165689037379676e-01
4.481525668878290070e-01 1.374385694791615986e+00 4.608181090275691449e-01
9.638936143500748122e-02 2.414993941351740059e+00 7.920972467118662097e-01
1.000388297292989170e+00 2.390656456554864917e+00 5.941137369081673780e-01
5.137519320403051148e-01 1.241879325350803143e+00 5.616457006919169936e-01
2.654055159791186558e-01 1.962535261735487424e+00 4.182270559956547396e-01
8.206244162646999518e-01 2.354742175921872516e+00 1.331713771822740089e-01
2.386250164475706703e-01 2.448800601888964756e+00 5.161361694032849667e-02
4.408775295743710965e-01 2.090145030878361787e+00 2.063709014598994751e-01
8.177285065495437655e-01 8.210633908421162142e-01 7.012166869427222116e-01
5.544080395200289280e-01 1.046837230447971612e+00 4.735083187197619004e-01
2.301979957406113941e-01 2.089688038841621243e+00 6.294195655336654038e-01
3.918570211333353703e-01 2.162726335612905171e+00 1.461733729459801512e-01
5.472308669588686891e-01 9.828740947135592432e-01 4.552027589139609476e-01
5.007142612207581001e-02 2.330282276702452915e+00 6.434523577740283162e-01
2.109468680076312941e-01 2.108454801617029695e+00 6.731337594120220258e-01
7.807249533283208698e-02 2.308246560655506929e+00 4.030407787596127500e-01
2.541903788780324192e-01 2.360395233405701898e+00 8.944862621316171936e-01
3.106728865552877972e-01 2.148028243418391714e+00 1.926216405376231233e-01
6.879728849009583147e-01 2.169884851824280592e+00 1.762951613089796810e-01
1.604121172464803013e-01 2.229534053538713145e+00 2.689944872319322000e-01
6.426137506017424172e-01 1.879949961471629738e+00 5.934173381638291334e-01
7.447727805859337691e-01 8.797778791555144196e-01 4.564395958137107412e-01
1.627636815506428025e-01 2.157596360313457584e+00 6.443672074462601929e-01
3.315451591707923029e-01 8.103477475439054833e-01 6.311888468919586437e-01
1.073294607529589051e-01 2.499996427946136190e+00 9.591545342388582696e-02
2.813541857045042116e-01 8.506458047263122380e-01 2.160987067319576349e-01
7.692185855022282137e-01 2.189669698099340422e+00 2.603859447255054693e-01
7.524580099203410644e-01 8.103477475439054833e-01 4.643470844782098261e-01
4.204260953937757894e-01 2.495445665917638944e+00 1.065980657179573798e+00
1.463577761816709510e-01 2.321524472114649740e+00 1.951221926873737411e-01
4.055204890872777801e-01 1.810022546151365486e+00 4.149871618327624079e-01
8.242829801144480051e-01 8.107056009753176307e-01 6.123001523952237291e-01
1.799355385846483635e-01 8.569944262737114737e-01 6.064165675456827387e-01
5.249611392143761490e-01 1.833746074428804551e+00 3.305950492476356084e-01
8.513071940808585314e-01 2.132150409586539119e+00 4.962788296299706636e-01
5.572233483678588062e-01 1.236349458307915539e+00 4.734511876540611341e-01
7.230790471635842875e-01 2.271675367622703501e+00 8.446600193497986186e-01
6.760074623865443000e-01 2.499790563238776464e+00 -3.880272777308545890e-02
3.932108401014760002e-01 2.393981027096877767e+00 8.884241287434452294e-05
8.158867903485006456e-01 2.215644519999071527e+00 7.044850564094181644e-01
3.946978552746417956e-01 8.103477475439054833e-01 5.528113671527450368e-01
2.288407004217522522e-01 8.103919106108370407e-01 3.250039635283682449e-01
2.205202844743975044e-01 2.273018025737002734e+00 1.637114819802953092e-01
1.482746165051353482e-01 2.310419145789596396e+00 7.546682860689920558e-01
1.802756069633199565e-01 2.427385591637679862e+00 8.919939372437284408e-01
5.668751623920883498e-01 8.684700955542190570e-01 2.149613838531338195e-01
5.451615945964503052e-01 1.864326841408263213e+00 6.839574424657778318e-01
2.500660018605427304e-01 1.968408051710362816e+00 5.320852792419838995e-01
3.464684500389598742e-01 2.245693886382325033e+00 8.635890417170577482e-01
7.706915982670432541e-01 8.546478861572391894e-01 2.848298107787355926e-01
2.676312593937096862e-01 2.007673629591090414e+00 4.105345744944135511e-01
3.798021577893521683e-01 2.499936809144417182e+00 -4.761033126836196339e-02
4.560652003706792690e-01 2.446847589489069996e+00 -4.168219601591401785e-02
6.225793921498458117e-01 2.419371442890160040e+00 9.857083134058873819e-01
5.009451227109950472e-02 2.428369023976722829e+00 2.156515240948713996e-01
6.733624356657312848e-01 8.888803124859468996e-01 3.761335275343665185e-01
4.923953774535287375e-01 1.882349331894894950e+00 6.717971527368578055e-01
6.849989277514647590e-01 2.323554755406824324e+00 6.997750632693292006e-02
5.059877265450574146e-01 8.103477475439054833e-01 2.533467750036592081e-01
5.895363704492919688e-01 9.324741738698634208e-01 5.211567882862221390e-01
7.416634239800684592e-01 1.979530789480837827e+00 5.923506256923127822e-01
6.064462808949895312e-01 2.362634006357089422e+00 9.726782404593709019e-01
4.565294378458235047e-01 1.158219375331607903e+00 5.227342340757571426e-01
-5.514968603343432807e-02 2.499012550676559918e+00 4.059331881502766248e-01
3.394112799981188200e-01 8.555127076065874858e-01 3.835009322137570842e-01
3.104975461456931929e-01 8.774408743067303451e-01 5.505930931701258357e-01
6.028985833586095744e-01 8.539807722857475358e-01 7.143943369451341008e-01
7.645787260050875833e-01 2.042338273520073244e+00 4.205230175601985532e-01
7.701867118814096358e-01 8.159345119856653561e-01 4.416135307162558643e-01
5.918630231281767351e-01 8.476376112771302207e-01 2.573281990234678740e-01
3.429743055401426322e-01 8.255605858113206352e-01 2.664353874920944998e-01
9.396389734379106962e-01 2.296534291582370990e+00 5.291950338310640323e-01
8.098731143280097911e-01 2.365426169053427508e+00 1.262715578949601403e-01
3.119363046863987132e-01 2.420177813951331025e+00 2.127301171737579211e-02
5.241716384055596922e-01 1.403073475245782076e+00 4.603258437197594866e-01
3.932681693966111891e-01 2.452348804532609616e+00 -1.331679668035671421e-02
4.084748705962727988e-01 1.773507219502769683e+00 4.434143399370316097e-01
5.263153587301696579e-01 8.518755706772792591e-01 3.243909731635719607e-01
2.358468604625189591e-01 8.746975624314332620e-01 4.614371491918000112e-01
5.676168268613663859e-01 8.148686549474541962e-01 3.130329586080035087e-01
9.369565147752023648e-01 2.382378085024552838e+00 3.045058341186427930e-01
5.721023045054356437e-01 8.279402632952828078e-01 4.085339561760831795e-01
4.925304729357406486e-01 2.325025715540783189e+00 9.673301440777458682e-01
5.768660200936119864e-01 2.118434980551945568e+00 8.138555057465014508e-01
2.080643796981060389e-01 2.334565047629705070e+00 1.534379067169786004e-01
5.522721403966979192e-01 8.352053993527424058e-01 1.832644441659052048e-01
6.325028368046681226e-01 8.341419187008952685e-01 2.833704895221691444e-01
5.308739559069746150e-01 8.481468471198823078e-01 7.229261592636425648e-01
2.725180506797788560e-01 8.423264284380164169e-01 2.541979058339197128e-01
7.521566347229518001e-01 2.433827387429303268e+00 4.722502520938473558e-02
6.971066882100621087e-02 2.344589955912103729e+00 2.876638638872842657e-01
2.792362085567606789e-02 2.416915805009137941e+00 3.134206400169841644e-01
8.596026862765229204e-01 2.481360087504005385e+00 9.170575658087734561e-02
4.655971152108295263e-01 8.672457598925258360e-01 7.568134116006570711e-01
5.072263714932023770e-01 9.863199728726127491e-01 5.444601081892626038e-01
2.996765894889107384e-01 1.972095817267369045e+00 6.511934727595785066e-01
5.892902116893723452e-01 8.536948612909142087e-01 6.483058303618243201e-01
8.932584812813388897e-01 2.445043005527964830e+00 8.535509104536301850e-01
6.473599276500061617e-01 8.541233180631621069e-01 4.736470644912191830e-01
5.672473894119676174e-01 1.710887366261022668e+00 4.727120022617214978e-01
3.631145266234763191e-01 2.424912588777488942e+00 9.950768183097243869e-01
3.676165552381338575e-01 2.484764846337776056e+00 1.030742476963312448e+00
3.063755015963348094e-01 8.267961320256733693e-01 4.247361893237651120e-01
1.547485213177116348e-01 8.495624453055553582e-01 5.748170103225614946e-01
4.861322929636072154e-01 8.137916820766493142e-01 5.187723770175300952e-01
3.733512521294192754e-01 1.766520367960678906e+00 4.697368618853156041e-01
4.380889649056490254e-01 1.879406063047970754e+00 6.836001969723179972e-01
5.680085790047986194e-01 1.990314115368552406e+00 2.513552505973257190e-01
5.024551696995727124e-01 1.144324200068673303e+00 5.118668105813155567e-01
5.534628330245037198e-01 8.391411137746430660e-01 1.935689857436261319e-01
5.162278794284345107e-01 1.707388689274914384e+00 5.123456465744276045e-01
6.370112487156533998e-01 1.791003493860400031e+00 5.498861473095256747e-01
4.787771878941944892e-01 2.267817644571264779e+00 9.332721833372149556e-01
7.172275779558177078e-01 8.685656575605097407e-01 6.242918683673279734e-01
7.183244172224183544e-01 8.662821582249070618e-01 6.403419725918076955e-01
6.001785821469980409e-01 2.025344159852483727e+00 2.568964400251286251e-01
7.254701957240752286e-01 2.026931107156408451e+00 3.589896564471366514e-01
7.808888344787405789e-01 2.121843288962256935e+00 3.045776834415139800e-01
5.286558564111962788e-01 8.312191559747759140e-01 1.488310339148700701e-01
4.748853626566670871e-01 1.822716425619807179e+00 3.617168117443255171e-01
9.564668563838360504e-02 2.417236732769004082e+00 8.250735713892725087e-01
9.859171474680827885e-01 2.415526737505765631e+00 6.347602228368252053e-01
2.500066948787676990e-01 2.061653317448327805e+00 6.721980496870397781e-01
5.740649745743744425e-01 8.217215710651367688e-01 4.464654428621780413e-01
7.593465562074743769e-01 8.371147078552012566e-01 3.070879135858036180e-01
4.837267066074874555e-01 8.579894886674016563e-01 2.216200914514154796e-01
3.922875619681231996e-01 8.265166557242470402e-01 6.097453281421167937e-01
6.521593190458292444e-01 8.715354599197804308e-01 3.648509410731163860e-01
1.071989370633170680e-01 2.257448586246319611e+00 3.819312578644487588e-01
6.075897401071614912e-01 8.227415451402859681e-01 7.637618425574285164e-01
3.997108388899532350e-01 8.607437988102059068e-01 3.012811349525481575e-01
8.844444878812129929e-01 2.295219975022485315e+00 3.173778825030240669e-01
4.696612480215729968e-01 9.407087291856581768e-01 5.375704921020489913e-01
8.614623272614545524e-01 8.317966270630383629e-01 4.461636692615345012e-01
2.240930929614613487e-01 8.142403679365540770e-01 7.396712092199395627e-01
5.068504377143239203e-01 8.434805116189171281e-01 7.693971775905407151e-01
8.077192695247679133e-01 2.452627270088139078e+00 7.061044515457298720e-02
5.523188811236507956e-01 8.298697219988153684e-01 6.335828372448655266e-01
6.007175476668789038e-01 1.959147044489008893e+00 2.917634261845903909e-01
5.238380462108109814e-01 2.164719785628958615e+00 1.390912427111540284e-01
7.487049608145224244e-01 2.260388522440999637e+00 1.561987281099813663e-01
7.285378790371064284e-01 8.111639914705359722e-01 5.746919862893792308e-01
4.278010899405842449e-01 8.872883169305142426e-01 5.615405548414660331e-01
3.079812730914599506e-01 2.205038831646576547e+00 8.209642501234001299e-01
6.172246392732834153e-01 2.092996350607859046e+00 7.776560314596786538e-01
4.815869138818879569e-01 9.032675021261117321e-01 6.495308869266908092e-01
1.509819030458838529e-01 2.466819660294973460e+00 9.824229360179900783e-02
2.117131688489590768e-01 2.205448837533786843e+00 2.520841623719387026e-01
3.487449492613310942e-01 2.382639574262987558e+00 9.763308574927856975e-01
5.245074047111015769e-01 1.808580352006543990e+00 6.410735689799226256e-01
4.758017984397599487e-01 1.334927135417323107e+00 4.874302643542199887e-01
3.104382515612759408e-02 2.338962164888309658e+00 5.569699608390954459e-01
5.363936143834386883e-01 8.608457427811668783e-01 7.854517511419806253e-01
2.755762759954527574e-01 1.995166187530386770e+00 3.915520515033176774e-01
5.023970676088336251e-01 2.089143249714619621e+00 1.764700532078669615e-01
1.972309382120118193e-01 8.349194876783789798e-01 4.771337938390999289e-01
6.836509176082199435e-01 2.480047056837872077e+00 1.030781123828392154e+00
2.456457461784335439e-01 2.377701653430065676e+00 9.189783002195425210e-01
5.154654799405085086e-01 8.924898662781816094e-01 4.121440576298771585e-01
5.048096912509696388e-01 8.324595102586723749e-01 5.722033702690748624e-01
5.032254442106720571e-01 1.426054358155718349e+00 4.691194658422480623e-01
5.053591225647477980e-01 2.322712902324771456e+00 9.506753010218590427e-01
7.677777600844333250e-01 8.493764945652663156e-01 2.775387369780527580e-01
4.201667904997503644e-01 1.730518001181085674e+00 5.333805214318861898e-01
4.902671418247906421e-01 1.618569012712695265e+00 4.796617763659627443e-01
6.671972372007570762e-01 1.945478437339688504e+00 3.485751157680525014e-01
3.328954687136743695e-01 2.196254535408991515e+00 1.745792971430067952e-01
7.511640015818805693e-01 2.186945021984421977e+00 2.223981395057219590e-01
5.828295636477807129e-01 8.320977949838546106e-01 5.059952207489805120e-01
6.215832484149510506e-01 1.881525411161264705e+00 3.601948088874064591e-01
1.426652322279335638e-02 2.386067362996698193e+00 4.815959062089452125e-01
2.492285898582980441e-01 8.297683329313100264e-01 5.029461325052602128e-01
4.541006700895675041e-01 1.608084458804670547e+00 5.068298583543179303e-01
4.378756736064501331e-01 2.130914518086076015e+00 8.305049213297964750e-01
7.061339023963935091e-01 1.961765318120380241e+00 6.274006078617800908e-01
8.062063347419825554e-01 2.075400687167327618e+00 5.794965623070487126e-01
3.973307350779413660e-01 8.207161682007910741e-01 8.536355058004526652e-01
3.456372029051451578e-01 1.851926275793781551e+00 5.152273906827979921e-01
3.325815956146489505e-01 1.869894981507159715e+00 4.062461232006152612e-01
3.170527542503375207e-01 8.709660489821857698e-01 3.691582651462680387e-01
4.642514567907408130e-01 1.445537604393180242e+00 5.181419023033347893e-01
3.635871991115801616e-01 8.422362338204071319e-01 6.860072298533896884e-01
7.568358450700334306e-01 1.982798483721713856e+00 4.613417580623705438e-01
5.939080344016329782e-01 2.492197969062497798e+00 -5.053648803450144777e-02
