2.464674 -4.968499 -1.205969 
-2.840832 6.877480 -2.739005 
0.944947 -4.425290 1.039933 
0.303638 -5.037589 -1.403374 
-2.954096 5.378125 -0.674768 
-1.145017 -4.718341 -2.269003 
0.295121 1.669941 0.750038 
-2.971208 6.635415 2.366385 
-0.960590 4.158277 -2.075536 
-0.698947 2.729255 -0.996133 
0.052988 0.149755 -0.486579 
2.207955 -4.631108 -0.076800 
-0.824277 6.565852 3.470649 
-0.395813 -3.175064 0.200367 
1.816747 6.567011 -3.288024 
0.577804 4.404556 2.169595 
1.184502 6.563357 3.363216 
-0.146643 2.931226 1.538347 
-2.662026 5.605610 -1.719223 
1.489627 -4.708678 2.016294 
1.114512 4.584917 -2.075373 
0.058865 7.152376 -4.110849 
3.016829 5.797440 -0.701076 
-0.255025 0.871656 0.436605 
3.136222 5.950296 0.586713 
0.074760 1.963042 0.969897 
-1.946586 3.951384 0.288249 
1.954440 4.575401 1.623428 
-3.501735 6.602418 -0.789994 
0.437042 2.037562 -0.652090 
2.400809 4.658964 0.023252 
0.918576 7.127766 -3.805216 
0.262961 7.113332 4.079645 
-0.181142 -1.963053 -0.423118 
-1.112936 -5.037590 -1.506384 
1.536865 -4.612180 1.482426 
1.008590 7.156876 -3.801478 
0.576639 1.877543 0.361780 
0.618814 -4.039034 0.049368 
0.281424 6.247965 -3.360863 
-3.399150 6.263597 -1.094619 
2.145635 -4.986585 -1.696826 
3.989320 7.289866 0.582580 
0.990413 6.914503 3.649208 
2.623922 6.247166 -2.118159 
2.112355 -5.036220 -1.162245 
2.876621 5.128587 -0.084060 
-1.065863 2.126188 0.054475 
-0.796026 -5.037589 -1.598497 
2.409424 4.591428 0.836122 
0.745800 3.979282 -2.046800 
-1.144107 3.587736 1.317349 
-0.915288 2.299377 -0.255257 
2.757463 5.856931 1.853711 
-1.580924 3.334135 0.834916 
-1.543836 -5.008445 2.235664 
-0.054363 -0.037738 0.483795 
-1.458673 3.348294 0.652232 
-0.910488 3.236923 -1.229025 
3.809754 6.766577 0.727055 
2.941310 5.235974 0.108584 
0.062500 -4.375953 1.210776 
-1.035743 7.069813 3.737021 
2.256697 4.814785 -1.067433 
-1.772674 3.811494 0.632243 
-0.248614 -4.678862 -2.382270 
-3.495508 6.738657 -1.128281 
0.069063 3.970632 2.172112 
1.421059 4.861137 2.313121 
-3.579076 6.285136 -0.193779 
1.990940 -4.577411 0.185494 
-1.637226 3.285227 -0.641301 
2.122209 4.593781 1.034662 
-1.126218 -4.690048 -2.161978 
-3.132486 5.863091 -0.174480 
-2.668569 6.026669 1.832745 
-0.769335 1.678106 0.255363 
0.752010 5.565461 -2.858085 
0.156514 2.413872 -1.226573 
2.564322 7.304283 -3.201212 
-1.378365 4.537091 2.106488 
0.207789 1.437205 -0.648133 
2.590307 4.961647 -0.998773 
3.009435 5.486338 -0.727449 
-1.958272 4.925190 -1.654693 
-0.176353 2.822567 1.469510 
1.671945 4.351220 1.727890 
-3.072353 6.719199 -1.991127 
0.711659 7.270404 3.948253 
-3.092499 5.487411 0.164043 
-2.709723 6.142507 -2.210770 
1.569188 3.758993 -1.311073 
-2.656014 5.642196 -1.399752 
1.208212 3.081613 0.772333 
2.613070 -4.742007 0.078836 
0.510819 3.258099 1.455426 
-0.170021 -4.243742 -0.745749 
0.415775 1.960522 0.877858 
-3.297973 6.753326 -2.025602 
1.536591 6.290077 -3.241715 
-1.179315 2.331552 0.143451 
-0.670839 -5.037589 -1.451439 
-4.019095 7.010975 -0.251488 
-0.041445 6.638188 -3.611243 
-0.031254 6.463030 -3.504082 
-2.651103 6.392757 2.509012 
-2.736017 6.966824 2.918288 
-3.113524 6.474460 -1.999045 
0.585914 3.155371 -1.358318 
-3.633783 6.798317 0.747039 
-0.626779 -4.755439 2.572955 
-0.745146 6.038971 3.158068 
0.253087 4.299239 2.359210 
0.533787 1.885221 -0.430866 
1.977860 4.750242 -1.759467 
1.666905 4.558731 1.641645 
-3.324978 7.014895 -1.927938 
-1.509206 6.529007 -3.207431 
-1.465615 4.464402 -1.992229 
0.018229 -4.824096 2.731095 
3.982518 6.962694 0.348658 
-1.215899 -5.019069 2.402683 
1.572319 5.691815 -2.811925 
-2.678888 6.208263 -2.008902 
-1.021435 3.437558 1.542858 
-3.768366 6.949391 -1.310417 
-0.996188 -5.037589 1.549642 
3.875026 7.177067 -0.745808 
3.498078 6.999872 1.570045 
4.084740 7.157401 0.493328 
-0.652724 4.416860 2.355620 
-0.549055 1.303540 -0.274569 
0.993306 -5.037589 0.281290 
0.118226 6.079872 -3.456665 
0.951236 4.987370 -2.624740 
-1.523252 5.185396 2.257047 
-1.449732 3.094193 -0.773540 
-1.073826 2.320685 0.492862 
3.132655 6.431017 -1.526034 
-0.358460 0.740883 0.348816 
-0.355507 5.048369 2.615055 
0.549179 3.922594 1.871138 
-2.173667 4.892838 -1.658388 
1.372523 3.795650 1.273385 
-2.448156 -5.029514 0.958588 
0.472021 6.635832 -3.579032 
-2.283022 5.667213 -1.973397 
0.112409 7.279143 4.018173 
-0.515909 -4.168552 -0.452074 
2.081984 4.787609 1.671478 
-0.485830 2.670846 -1.301597 
-1.752109 5.181147 2.323291 
-1.712340 3.977084 -1.344577 
1.279114 4.572983 -1.969357 
-1.301036 5.226566 -2.633776 
0.760186 -4.630897 -2.073511 
2.091720 5.876980 -2.349604 
0.029808 6.086928 -3.462931 
1.443689 5.322028 -2.625025 
-0.039514 6.890363 -3.953783 
0.343073 -0.989764 0.326732 
1.638777 3.634264 -1.092011 
1.053393 3.049228 0.943286 
-2.989611 5.877288 -0.979787 
-2.395993 4.440357 0.551321 
0.661349 6.193081 3.465402 
-1.980345 3.907353 -0.797212 
2.991827 5.768889 1.316887 
2.549420 5.764999 -1.723582 
1.525464 -5.001909 2.256400 
-1.110202 4.485234 -2.008119 
0.644832 1.401418 0.149746 
-3.746938 7.010655 -0.845286 
-0.075247 -4.830742 2.733858 
2.212422 -4.633929 -0.186731 
-1.236183 4.291738 -2.019942 
0.244335 -4.634540 -2.209270 
2.523771 4.874666 -0.214578 
0.189478 -3.290628 0.399691 
-3.224197 6.840930 1.887186 
-0.635347 4.071674 -1.940139 
-1.932357 5.405915 -2.105541 
-0.263420 5.940370 3.173637 
-3.131856 6.732360 -2.252233 
0.914108 5.240502 -2.800777 
2.016130 6.305357 -2.747418 
0.552408 -4.642987 2.187221 
-1.033399 3.590637 1.408053 
-1.467181 -5.037589 -0.281184 
0.263976 -0.299594 -0.404771 
0.407836 5.262035 2.930984 
3.814454 6.677136 0.271661 
-0.405665 2.373496 -0.910043 
-1.398238 -5.037589 0.168270 
-2.048615 4.137085 -0.368465 
1.291153 -5.037589 0.809084 
-1.204534 2.389513 0.206513 
-1.273989 -4.418979 0.531697 
-2.594841 -4.735587 -0.096209 
3.613478 6.358764 -0.338312 
-1.731025 5.305911 2.433163 
-1.983976 7.180079 -3.413370 
2.178934 6.104578 2.705512 
-2.788728 6.945522 2.849935 
-2.897843 5.793642 1.545019 
1.690367 5.471944 -2.354172 
-2.279308 -5.008578 1.478063 
-1.984635 -5.037589 -0.541333 
1.089486 3.993364 -1.669334 
-3.806376 7.142602 -1.538336 
-1.416932 3.277304 0.638713 
3.315142 5.885996 0.410395 
-1.568621 -4.712967 -1.975004 
-1.247190 3.623281 1.515361 
-1.138018 6.105425 -3.082087 
1.731125 4.222856 -1.247821 
-2.124959 -5.036557 -1.087885 
-1.784859 -5.037589 -0.816818 
-0.954197 -4.606475 -1.885366 
-1.381902 -4.673651 1.931703 
-2.171410 4.359594 -1.044279 
2.064919 5.432941 -2.263206 
-2.635151 6.116619 -2.275136 
-0.372118 0.411844 0.323668 
-0.456443 7.102497 -4.056110 
-0.410432 4.791461 2.447852 
-1.295813 3.573004 1.433299 
-1.507231 -5.037589 -1.281037 
0.035321 3.890831 2.124457 
2.112688 -5.037589 0.464279 
-0.629938 4.911775 -2.672408 
-2.529211 4.874503 0.135503 
-2.634834 5.573271 1.349097 
2.923075 6.001990 1.355885 
-3.915603 6.827908 0.043968 
-0.720015 5.654418 2.922432 
1.831810 3.732755 0.085439 
3.325777 7.042753 1.960901 
-0.302580 -5.037589 -0.211659 
0.436480 -1.585430 0.161831 
-3.117346 5.521206 -0.024791 
1.543462 4.252135 -1.499486 
-2.517537 5.573987 -1.557831 
3.447850 6.383477 -1.180313 
2.677474 6.768693 2.541604 
-0.997547 -4.726579 -2.366378 
-1.629145 -4.556858 -1.014597 
-0.517741 3.235142 -1.438056 
-2.352105 4.328826 0.428030 
3.638340 7.190461 -1.550765 
-2.457161 -5.032853 -0.719410 
-1.840836 5.912299 2.577576 
-2.444142 6.149923 2.507400 
3.190594 5.652041 0.207104 
-0.768351 -4.582583 1.867932 
0.307625 4.036448 2.191595 
-0.557492 -4.367412 -1.038912 
0.442616 -4.895034 2.716558 
0.057270 -3.614566 0.438109 
-0.285772 6.388558 3.636360 
-2.019291 6.180700 -2.649789 
-0.034503 -5.037388 -2.331145 
2.640996 5.976061 -2.133779 
1.431647 -4.480610 -0.761177 
-2.437505 6.175896 -2.536044 
3.296086 7.262770 -2.276723 
3.036330 5.959567 -1.496726 
3.332345 7.202694 2.456537 
0.128932 2.256709 -1.136684 
0.154153 -1.549246 -0.439764 
-0.080946 -4.420937 1.385671 
-0.442131 -3.214040 -0.030517 
2.962550 5.552195 -1.029426 
0.720975 4.068683 -2.112987 
0.825062 4.194377 1.949174 
-1.645564 -4.500255 -0.418614 
-0.528129 3.041175 -1.306336 
1.394662 -4.551781 1.289456 
0.835588 2.946038 -1.061012 
3.818816 7.084436 1.410675 
1.187499 -5.037589 -1.286453 
3.474889 6.302872 -0.921726 
1.598347 -4.757681 -2.117187 
-1.589583 7.042210 3.720505 
2.780434 6.670848 -2.335934 
0.956638 6.126668 3.156898 
0.088117 2.921797 -1.332665 
-0.417606 -4.254018 -0.665904 
2.269024 -4.901109 -1.559099 
3.838286 6.910668 -0.999591 
-0.697240 6.393968 -3.391048 
1.713974 4.856412 -1.849664 
2.380247 7.299812 -3.286375 
-3.257056 6.284819 -0.958527 
1.805702 3.864271 0.635754 
0.480560 -0.136808 0.069338 
-1.570882 6.378727 3.074582 
2.858055 5.316446 0.886876 
0.714530 -4.421221 -1.191430 
0.202196 4.881760 -2.720002 
1.413028 3.057309 -0.129998 
1.163802 2.378688 0.351658 
-1.809015 5.349260 2.167408 
3.411351 6.341681 0.357026 
-0.299154 2.910915 -1.503697 
1.117854 -5.033909 2.276991 
0.717459 -5.037589 -0.534436 
-0.178422 4.354660 -2.207440 
-2.788123 7.094174 -2.974384 
3.503611 6.979677 -1.526403 
-1.602504 4.633265 -2.016723 
0.239038 -0.575130 -0.415639 
2.606345 6.678451 -2.535337 
-1.673296 3.380009 -0.704465 
-1.307595 -4.722334 2.194613 
3.506833 6.785270 -1.185381 
0.901434 2.587118 0.679717 
2.307461 4.814854 1.376192 
-0.366935 0.933902 -0.353409 
2.028839 -5.037589 0.477014 
-0.952838 2.131139 -0.487157 
-3.286294 6.878488 2.185956 
3.404532 6.693150 -1.762484 
1.364502 -4.742362 -2.230921 
-1.398831 -4.441766 0.450302 
-2.465549 -4.728347 -0.738368 
1.677787 7.304193 -3.738085 
0.336005 2.327796 -0.907749 
0.190605 3.780794 -2.049242 
-2.928751 5.879363 1.597634 
-0.521775 -4.266984 0.629194 
-0.122938 3.899708 -2.126583 
1.088759 2.172946 0.113796 
2.818351 7.302669 2.946718 
-2.350202 5.185133 1.719998 
1.343546 2.936423 0.052815 
2.444957 7.264126 -3.174692 
1.414141 -4.923742 2.362143 
-1.553481 5.000049 2.096974 
1.203591 -5.037589 1.884098 
-1.347665 -5.037590 1.321697 
0.360625 5.955692 -3.173493 
-2.214046 -4.642730 0.426895 
-0.413576 -1.204422 -0.224881 
0.969491 4.099931 2.032258 
3.329420 6.177525 -0.030082 
0.126443 7.151594 3.927676 
0.424947 2.285275 1.080152 
-1.662750 3.304820 0.607300 
2.381979 6.255528 2.394423 
0.818377 2.390539 0.586691 
-2.027382 5.832724 2.613685 
-1.550494 3.166988 -0.664394 
0.510773 0.962058 -0.036295 
-0.439185 -2.191496 0.126706 
1.873779 -5.037590 0.852362 
0.413792 0.654826 0.276407 
-3.741913 7.295173 1.526504 
4.026868 7.179694 -0.904775 
3.972961 7.299708 -0.823192 
3.642266 6.652755 1.115122 
-0.114842 0.095628 0.475019 
0.293348 -1.675733 -0.359842 
0.105482 0.476498 -0.482769 
0.915674 4.253291 -1.948261 
-2.170219 4.158387 -0.722169 
0.547617 2.512331 -0.933910 
-1.182232 -5.037589 1.900726 
-1.884819 -4.593058 0.833053 
-0.334631 -0.021339 0.354005 
-0.578992 1.278812 0.166673 
0.529930 1.737236 -0.217385 
0.899649 -4.557498 1.698228 
-0.202000 7.304309 -4.115363 
-1.203052 -4.579236 1.606063 
-0.221637 -5.037589 0.164093 
-2.073495 4.373540 0.810522 
2.103392 -5.037589 -0.337203 
0.973077 6.256618 3.234883 
-2.197178 4.456759 0.598363 
2.402007 4.348559 -0.062868 
-0.543564 3.205836 -1.621713 
2.286752 -4.839545 -1.506861 
1.198056 2.947618 -0.625421 
-1.677629 3.434297 -0.775925 
0.178591 1.861105 0.896309 
-0.199436 6.046865 -3.243526 
-1.201122 2.713222 -0.118756 
-2.445623 7.269587 3.179446 
-1.180676 3.680268 -1.360824 
3.630761 6.520229 -0.845857 
-2.434814 -4.690109 -0.126445 
0.136758 -4.675478 -2.378210 
-0.157058 6.443884 3.677942 
1.309009 2.949895 -0.341797 
-0.361958 1.162379 -0.418269 
-3.096989 6.415210 1.576214 
-2.961770 5.510118 -0.950687 
0.549585 2.321102 -1.046259 
-0.897514 2.062917 -0.506404 
3.584012 6.754376 1.462931 
0.519943 -4.833390 -2.686127 
-2.056015 -4.768532 -1.710973 
-3.670577 6.527226 -0.675521 
2.520348 6.190921 -2.466719 
1.001696 6.106907 -3.129975 
-0.426432 1.248635 0.405846 
-0.146702 6.924800 -3.784702 
-0.246817 5.335038 2.803561 
-1.281882 5.486697 2.818563 
3.242394 6.728409 -1.712450 
1.003837 2.400175 0.135208 
-1.890157 3.804501 0.849882 
2.393073 -5.037039 -0.063435 
-1.938960 3.794634 0.714542 
-1.921441 -4.599324 -0.809800 
-3.960918 7.055786 0.864175 
2.278713 6.019272 -2.293323 
-3.864849 6.966970 -1.032362 
2.602492 6.479506 2.634412 
-2.460598 4.850955 0.536516 
-1.853376 4.116656 1.296460 
-3.364286 7.291577 2.224945 
2.101713 -4.684151 -1.190560 
-1.693332 6.207859 2.888301 
-2.538556 6.385575 -2.346323 
2.059047 7.096012 -3.305490 
2.698388 6.134260 -1.905394 
2.126228 6.425620 -2.991631 
-1.661566 5.120776 -2.107190 
3.356330 6.234159 0.230884 
2.731677 5.513525 1.041990 
-0.044038 6.605454 -3.779815 
2.365859 5.614329 -1.820526 
-3.775816 6.921703 -1.236554 
2.412294 6.640235 -2.938166 
-1.310698 6.656533 3.578887 
-2.792353 6.966908 -2.864410 
2.426265 6.181036 2.551339 
-1.811673 -4.607010 1.091652 
1.963601 -4.581760 -0.458797 
-0.880511 6.298377 3.287617 
2.588351 4.676252 -0.267226 
0.891282 2.093695 0.551742 
-0.416719 -0.583703 -0.236840 
-2.993781 5.920584 1.049836 
-0.557701 4.394989 2.366123 
-2.476795 4.823575 1.054364 
-0.195852 4.958728 -2.576952 
2.812670 5.358461 -0.301317 
1.591258 -4.667235 -1.729516 
2.430274 4.705212 -0.978148 
0.816123 5.526133 3.011861 
-2.737501 5.330939 -0.642629 
1.571237 -4.989662 -2.237302 
-1.405273 3.093336 0.319808 
0.011349 -5.037589 -0.007938 
-1.914106 3.592591 0.339881 
-1.213537 4.772459 -2.151900 
1.217981 4.913524 2.461890 
-0.019564 1.567462 0.749654 
0.891215 -5.019718 2.538088 
-3.484132 6.429810 -0.001654 
0.253695 3.117785 1.433933 
-1.859268 4.921033 1.761715 
0.936077 3.936734 1.938422 
-1.215119 5.253699 2.483375 
-0.608829 1.608086 -0.475004 
0.530619 -4.418623 1.272935 
3.167900 6.534673 -1.982119 
2.631659 4.804026 0.506684 
1.347935 4.313194 1.962996 
0.059987 -4.618391 -2.158749 
2.571548 5.020868 -0.514183 
0.304024 0.655911 0.393927 
0.684353 -5.037589 1.505130 
0.310238 -5.037589 -1.660049 
-1.411996 6.238789 -3.056655 
-1.027843 5.215488 2.744678 
-1.478888 3.448356 0.752332 
-2.816739 5.648293 -1.049789 
-0.398932 -2.280658 -0.220621 
2.618088 -5.028561 -0.243771 
0.599425 1.452758 -0.339401 
1.704378 -4.547511 0.800081 
-1.117887 6.645711 -3.636943 
-0.453644 4.786147 -2.630343 
2.630870 5.508541 1.268129 
2.490390 4.497274 -0.120779 
-3.478023 6.925987 1.925636 
1.692689 -5.037589 -1.175398 
-0.919031 -5.037589 0.087352 
0.113622 -4.518414 1.765285 
-0.013410 -3.507630 -0.440497 
-0.164036 2.223635 -0.887619 
2.121000 7.274004 3.408635 
2.072128 4.388808 0.839025 
-1.334954 -4.923484 -2.407595 
-3.792471 6.749273 0.761434 
-2.333094 6.829028 -2.908403 
3.415784 6.420638 0.656692 
-0.610573 6.883265 -3.902203 
-2.998457 5.456048 -0.693807 
-0.277059 -4.245925 0.716963 
-0.653108 3.580555 -1.823350 
-1.405448 6.604136 3.508223 
0.905485 6.015236 -3.297347 
0.537227 5.218308 2.882914 
-1.020792 -5.037590 0.210471 
-1.475746 5.270064 -2.349827 
-0.805306 6.283544 -3.491665 
-2.103852 6.520869 -2.846743 
3.102703 6.401431 1.546084 
2.462012 5.072492 1.422879 
0.441098 -2.236603 -0.117597 
-0.462650 -1.066718 0.096839 
-1.740245 -4.575082 -0.966105 
-0.585114 2.127174 0.605651 
1.918442 5.645527 -2.312060 
0.146138 4.387318 2.421854 
-2.988698 7.302138 2.876703 
-4.042582 7.226453 0.951640 
0.457442 4.383039 2.184656 
-0.842394 4.424127 -2.094110 
-3.202740 7.095252 -2.214547 
0.641986 3.948921 1.858405 
0.834275 6.474223 -3.410570 
-2.307374 -5.036587 0.628424 
1.540887 -4.535841 1.000339 
1.617332 5.187694 2.424017 
-2.493912 4.814898 -0.111014 
4.044386 7.304009 0.639262 
-1.380674 6.610883 -3.319182 
-0.455324 -4.442286 -1.399403 
-0.032982 -2.991961 0.444934 
3.246813 6.002982 1.047979 
1.980811 6.500668 -3.144284 
3.032720 5.451568 0.507970 
1.524111 3.424776 -0.618337 
0.444659 4.892423 -2.504673 
0.409690 -5.037674 1.313558 
2.455262 -4.764027 -1.038011 
-0.380339 -2.318305 0.250416 
2.612878 7.134875 -3.160923 
1.020070 4.993023 2.397259 
-3.041610 7.226684 2.828013 
-2.529839 6.171288 -2.158928 
0.218702 6.109619 -3.280787 
-2.289302 7.120709 -3.392418 
2.611549 4.900886 -0.825684 
-0.747280 1.671371 -0.304261 
1.595843 -4.565744 -1.127749 
-1.263783 -5.029194 2.297238 
-0.417678 -5.031786 2.567038 
-3.016703 7.010540 -2.377361 
1.392242 -4.651873 1.818849 
-1.049357 4.752926 2.432076 
-1.604805 7.253050 3.844981 
-0.232216 -1.493885 -0.404891 
-0.159457 1.698611 -0.065862 
-1.351527 -5.035911 -2.080554 
2.254427 4.159719 -0.390682 
0.108091 4.649586 2.392849 
-0.249809 4.902559 2.537819 
3.274462 6.486801 1.739125 
1.161962 5.226227 2.490216 
-0.555062 5.131345 2.632025 
3.545411 6.841561 1.682596 
2.335183 5.944302 2.168746 
-1.336108 2.596834 -0.156969 
-0.577424 1.240050 -0.091651 
-1.721398 5.250356 2.160798 
2.149338 4.565440 0.934509 
-1.996019 -5.037211 -1.163712 
3.058375 5.778330 -1.170091 
2.072674 6.725275 3.248557 
-1.692895 -4.675270 1.674863 
1.174541 -4.596239 1.708153 
-0.639677 -5.037590 0.725965 
-1.541816 4.893822 2.258588 
-2.438300 5.968603 2.075239 
0.098637 -5.037589 -0.215160 
3.819559 6.810701 0.814277 
1.744774 7.052652 3.451095 
0.270335 -3.052592 -0.353790 
0.424647 -5.037589 0.147783 
-1.074038 4.944258 -2.548371 
-3.840895 6.750605 -0.464575 
-1.342687 6.955375 -3.761126 
0.500296 7.028148 -3.819082 
-0.463104 -0.637150 -0.120709 
-2.821362 5.545838 0.838702 
-1.136638 6.206659 3.148629 
-0.341831 6.858058 3.730842 
-0.375914 1.698611 -0.000230 
0.641703 6.112457 3.418917 
2.667891 5.432482 -1.505534 
1.956927 5.114425 1.830379 
0.981536 4.317963 1.960338 
-1.595449 5.131007 -2.165487 
0.631813 -5.037589 -0.814984 
3.466197 6.940377 1.965130 
-0.602562 3.501802 -1.790482 
-2.564404 7.024265 -2.870709 
0.086893 -0.686682 -0.469954 
3.071828 6.354581 -1.928002 
3.402451 5.991413 0.121949 
-2.355920 6.775971 3.088140 
2.687651 -5.015629 0.263376 
0.568099 2.390676 1.082728 
-2.478382 6.846245 2.799835 
0.546099 3.887883 -2.051497 
-0.530130 -5.037590 1.300775 
3.494564 6.836469 1.313256 
0.218170 0.741966 0.450074 
-1.813419 3.766589 0.387780 
-3.944094 7.304318 1.133771 
2.707783 4.860055 -0.185619 
-2.573009 4.762951 0.654654 
-0.432212 -3.074781 -0.105767 
0.137386 -5.037344 2.268818 
-1.840287 7.160525 -3.478643 
-2.973764 6.322564 1.685964 
0.909564 7.106184 3.981456 
-0.412479 -1.757816 -0.210642 
2.696465 4.851278 0.258488 
-0.033464 5.559895 3.140840 
-1.765038 7.163917 3.720886 
2.059181 5.374799 1.954279 
1.708205 4.310039 1.366179 
1.473703 3.555783 1.233368 
-3.816429 6.671916 -0.186926 
-3.492474 6.481994 1.235874 
-2.096639 5.798220 2.280311 
-2.887154 5.167276 0.288536 
2.793874 6.245410 1.886513 
-2.044175 5.905956 -2.414345 
1.541390 7.013618 -3.722336 
1.139679 -4.485639 1.180613 
0.602336 -4.419559 -1.244587 
-0.987977 5.865504 2.979422 
0.397927 7.230731 4.136523 
-0.434954 -4.087058 -0.472947 
-0.325366 -1.249473 0.339383 
-0.501533 0.811303 -0.029967 
-1.309240 4.891442 2.399244 
-3.645781 6.986469 1.159923 
1.101523 6.037949 -3.251573 
-1.231685 3.604880 -1.250591 
-0.418028 7.205134 4.120161 
-0.222259 -4.353556 -1.102831 
-2.813699 5.024389 0.063884 
1.481920 5.702364 2.653302 
-0.392590 1.689995 0.716772 
2.614297 6.307515 -2.187995 
0.896430 3.663299 -1.550670 
2.628046 5.065162 -0.336118 
-3.769639 6.608585 -0.305603 
1.911874 5.578928 2.506755 
-0.427357 2.768367 1.165053 
-0.467254 4.583239 2.307811 
-3.440091 6.998660 -1.691493 
0.988256 7.304435 -3.990260 
-2.586776 4.666006 0.216498 
-0.638387 -4.300316 0.666693 
-3.487384 6.127730 -0.071185 
2.240568 6.357044 -2.609627 
2.028564 6.481467 3.099440 
-2.854132 5.149419 -0.457185 
0.230610 -4.307068 0.918926 
-1.506089 4.029012 1.615380 
3.549332 7.008336 -1.464521 
-0.361168 3.890843 -1.896538 
0.452897 6.665405 3.789894 
-0.670573 -4.290953 0.585485 
-3.512692 6.499436 -0.312033 
-3.143818 6.893170 2.077276 
2.296101 5.436622 1.732789 
-3.153757 5.638360 0.473714 
-3.801215 7.151989 0.997392 
0.981696 -4.716576 -2.337355 
-2.005362 -5.034883 1.511229 
-1.256571 5.980103 -3.156857 
2.990760 6.561221 2.267245 
-0.298065 -5.037357 -2.238337 
-1.463264 3.294498 0.554446 
-1.914386 -4.633798 1.123684 
-2.189132 -4.672175 0.906850 
-0.221001 -4.289427 -0.857195 
2.601702 6.377192 2.546425 
-1.669431 3.725461 -0.747939 
-1.294502 4.300937 -1.756346 
-2.276583 -5.036515 0.720515 
-3.028512 5.995169 -1.088645 
0.253068 3.037870 -1.589272 
-0.597313 2.284828 -0.995062 
-2.587459 4.989053 0.282712 
1.444202 2.768504 -0.099009 
-1.491122 3.944585 1.559259 
-0.250443 5.209754 2.726349 
-0.091225 6.388350 -3.457479 
2.273968 4.939854 -1.203533 
3.391625 7.029773 1.827908 
-2.361981 -4.670705 -0.088171 
0.804363 2.314088 -0.860197 
-2.437697 4.777887 0.421141 
-2.283011 6.327794 -2.548461 
-2.291046 4.503174 -0.992411 
2.977538 5.690025 1.227678 
1.395618 -4.851849 -2.362320 
2.621713 -4.809705 0.732229 
1.088183 3.697083 -1.686698 
-2.748584 -4.879149 0.104822 
-3.069848 5.789601 0.373918 
1.737808 -4.722177 1.871631 
-2.258653 -5.027865 1.374543 
1.064848 4.230775 -2.073745 
1.918807 3.838302 0.835823 
0.413172 -2.654570 0.180032 
-2.769691 4.991711 0.370190 
-3.697746 6.786124 1.209650 
1.098794 -5.037589 -0.938615 
-0.396691 2.748145 1.379389 
-1.763964 3.363508 -0.385642 
-0.260725 -4.325948 0.984237 
0.698114 6.323521 3.539690 
0.742277 5.242415 2.656127 
-0.441779 0.748867 -0.235126 
1.274686 -4.418393 0.523988 
0.433710 -2.133722 0.146846 
-2.234429 5.368362 -2.037972 
-0.543521 2.337465 -1.060239 
-0.618782 -5.037589 -1.514261 
3.642582 7.292332 -1.734235 
2.965930 5.461170 0.833738 
-1.076669 4.638145 -2.131865 
1.304777 -4.418195 0.441147 
0.551765 2.361299 0.820554 
0.164114 -0.884073 0.445931 
-2.845277 5.397058 -0.202030 
0.293339 2.390758 -0.963483 
1.969102 -5.028877 -1.740494 
-3.046194 5.623819 0.913195 
1.507000 5.449968 2.679318 
-1.810306 7.063825 -3.632880 
1.630057 6.914075 -3.411566 
0.094995 4.438939 2.455842 
2.456033 6.353110 -2.667260 
1.635903 -5.037591 0.799203 
-2.582479 4.674404 -0.310399 
-2.440900 5.697352 2.108057 
0.250732 -4.422478 -1.371343 
-0.736142 2.033023 0.264281 
-3.192050 6.548970 -1.569089 
-0.569526 4.677549 2.540021 
-1.360561 3.048481 0.383441 
1.519008 5.555776 2.528413 
0.749137 4.929259 2.652550 
-0.935004 5.813077 -2.962669 
0.632375 5.158975 -2.826675 
1.802177 6.324704 -2.906111 
-0.149485 7.078406 4.064701 
-3.301249 5.973423 -0.786535 
-2.444029 5.287486 -1.695938 
-1.244596 -5.037589 0.599463 
-2.273977 4.579281 -1.138785 
-2.462708 4.665307 0.819625 
2.989648 6.472172 1.838673 
-0.314655 -3.985049 0.505470 
-1.931009 6.110641 2.662029 
-0.424452 0.414678 0.251249 
0.416160 3.792464 1.823498 
-0.248908 -0.974579 0.403266 
0.926316 5.482944 2.952131 
2.698040 4.908208 -0.497125 
-2.679852 4.840526 -0.347239 
-0.795111 5.579721 -3.051241 
-2.072417 6.415619 -2.789884 
2.611272 4.954193 0.929040 
0.457606 -3.968381 0.367173 
0.581144 3.374761 -1.716711 
0.818752 2.463693 0.661228 
-0.011860 6.845263 3.926615 
-1.908200 3.547476 -0.181018 
0.317479 6.024455 -3.410173 
1.435720 5.087323 -2.464949 
3.698811 7.145581 1.785614 
-1.977958 5.444838 -2.348936 
-0.258738 4.695577 -2.601193 
-1.583003 5.780643 -2.868020 
-0.300015 6.495230 -3.700583 
-1.124411 -4.378329 0.477547 
-3.117819 6.378168 1.482747 
0.306548 5.422801 3.042080 
1.738810 6.750985 -3.456491 
0.005218 6.501715 3.528084 
3.002925 5.993652 -1.154800 
-3.191462 6.381232 -1.322050 
-2.645877 -5.026995 -0.172335 
-0.103839 6.664750 3.815088 
1.591811 7.303865 -3.811927 
-2.379055 7.003723 -3.009885 
2.143804 5.400823 1.885004 
-2.386244 6.123681 -2.274920 
-0.186272 2.302896 -0.934126 
1.387649 -5.037200 -1.851320 
-0.455614 0.354897 -0.186755 
-1.084352 7.021507 3.691590 
0.808393 -4.564094 -1.771802 
-2.313897 6.233229 2.441461 
3.060658 5.448221 -0.273469 
-0.547545 5.355533 -2.773604 
1.450653 6.491898 3.415336 
-1.827941 6.573849 3.286627 
-2.733442 5.563462 -1.552142 
-1.295637 6.549068 -3.312621 
-1.820439 4.653771 1.560604 
0.489691 0.423071 -0.060426 
-0.167183 3.005150 1.580837 
-1.841816 -5.035720 -1.642264 
-0.573830 5.828155 3.062649 
-0.460490 2.854311 -1.426603 
2.248380 4.858925 1.145250 
2.658416 5.124976 -0.384337 
-2.555284 4.912206 0.059645 
-1.658071 4.745652 2.059999 
0.476695 -0.588723 0.049839 
1.687935 -4.497898 0.053754 
0.727296 3.376167 -1.441964 
-0.463104 4.808044 2.642231 
1.930367 6.759357 3.358925 
-1.814609 4.432055 -1.350777 
-0.402349 2.524895 1.238840 
-0.767153 2.976339 1.372571 
-2.400039 4.386308 -0.352748 
2.634027 4.728530 -0.008217 
-0.360932 -3.300833 -0.255470 
1.301901 -4.439012 -0.658170 
-0.893947 6.651684 -3.507758 
-1.231800 3.230696 -0.900111 
-0.486019 5.544508 3.093666 
3.452405 7.029055 -1.709104 
-0.354266 -3.493382 -0.262052 
0.185297 6.063038 3.443500 
1.956548 7.164354 -3.624049 
0.921413 -5.037589 -0.878575 
-1.270287 -4.691761 -2.088269 
-1.136321 7.296848 -4.011497 
1.022242 6.860549 -3.800744 
-0.905792 2.233763 0.076860 
0.380089 -4.542377 -1.823504 
0.656073 1.852684 -0.100546 
-0.160748 -5.037589 -0.842152 
-2.277841 -5.035773 -1.000245 
0.969105 4.469373 -2.069300 
-2.706898 5.244973 -0.536551 
2.807878 6.214808 -2.157880 
0.097032 0.182999 0.480220 
0.861014 -4.986765 -2.596421 
0.491280 -5.037589 1.985444 
-0.570355 4.998291 -2.739665 
0.802053 2.871710 1.029253 
1.398625 3.026200 -0.058552 
0.497202 7.061882 4.027371 
1.237518 5.293155 2.499259 
-2.169483 5.083582 -1.540457 
-0.533989 3.843534 -1.825099 
-0.312779 -4.216157 -0.655434 
1.934298 -5.037457 -1.083503 
0.310890 -1.933079 0.339966 
-0.643730 4.929436 -2.484346 
-0.859256 4.926773 2.416643 
-0.860364 1.771581 0.071125 
1.475975 3.648912 -1.316931 
1.910275 5.084016 -2.116098 
0.808681 3.201919 1.504482 
-0.481194 1.257996 0.346408 
2.247911 -4.788710 1.501221 
2.135418 4.287166 -1.017642 
-0.329956 -3.826714 0.381970 
2.329201 4.674194 -0.619846 
-2.958219 6.430493 1.841034 
1.517144 5.260274 2.539640 
-1.175120 6.698957 -3.652897 
0.744999 2.753590 0.981030 
-2.284762 -4.650843 -0.090061 
1.415240 5.486486 2.753879 
1.396056 3.020444 0.024674 
-3.751435 6.795115 1.051499 
2.462308 6.964320 -2.910143 
-3.009926 5.346685 0.081743 
-1.364094 5.203249 -2.369269 
-1.851879 4.942606 2.052620 
-3.670439 6.865117 -1.428911 
-0.971935 -5.032817 2.394907 
1.796389 6.987857 3.588626 
1.011978 5.260913 -2.780148 
-3.423480 6.070590 0.451183 
-2.412732 -5.036241 -0.374396 
3.865617 6.746119 0.055479 
-2.514630 4.898374 -0.407223 
3.851176 6.959070 1.065454 
-3.169036 6.508285 -1.949459 
-3.165263 6.011530 1.287139 
3.096318 6.905266 2.473545 
-0.803332 3.022471 1.143699 
-3.992345 7.304258 -0.934473 
-3.516564 6.255665 -0.593440 
0.097862 -4.352550 1.116778 
2.736422 5.023160 0.653926 
-2.590441 5.284804 1.459442 
-2.997498 5.685469 -1.170192 
-2.618806 -5.018232 -0.639871 
0.569138 4.111977 -2.185985 
-0.464529 -5.037640 1.410618 
-0.253314 5.443387 -3.059477 
2.939397 6.784478 -2.547252 
0.283181 6.777530 -3.875078 
0.795027 3.842219 1.726526 
1.358883 5.042158 -2.258119 
-2.108221 6.614455 -3.144465 
-0.936561 4.076514 -2.031917 
2.087607 4.152292 -0.116400 
-2.472065 -4.729137 0.724822 
-1.118391 3.808829 -1.747889 
0.573040 2.065652 -0.562383 
-1.952878 4.014445 0.459989 
4.151392 7.289988 -0.470080 
-0.500722 4.073564 -2.178821 
0.138927 2.956874 1.350078 
2.090596 -4.624964 0.636595 
-0.182652 0.463323 -0.458895 
2.316124 5.509941 1.780496 
0.616321 5.927172 -3.116313 
-2.573352 6.457417 2.643956 
2.863458 6.420817 -1.974780 
1.282220 6.509094 3.291624 
1.267258 3.807525 1.642159 
-0.297805 4.736856 -2.430506 
-1.708864 3.841594 0.831413 
-3.504442 6.748236 -1.635720 
-0.577748 -5.037589 1.392603 
2.016970 4.723244 -1.688948 
1.680676 -5.037589 -0.874007 
-0.307252 6.894332 -3.756212 
0.721106 7.267498 -3.944226 
-3.890527 7.062465 1.154141 
2.338379 4.317721 -0.465058 
-2.912474 5.496385 -0.066070 
-0.084890 -3.725985 -0.444468 
-3.121380 5.887934 1.192871 
0.809219 1.695651 -0.135053 
0.702792 4.749700 2.353777 
-3.505119 6.906403 -1.404851 
1.253717 -5.037590 1.765946 
0.564692 -3.998610 0.208340 
-3.398606 6.632295 -1.692226 
0.408319 2.193548 -0.783799 
0.542350 6.053635 3.399664 
-1.694804 7.161580 3.552585 
2.717566 5.634228 1.264641 
-1.230688 3.103625 -0.761944 
-1.188374 5.707614 -3.004829 
2.453581 5.299448 -1.333746 
-0.547347 -3.914067 -0.102797 
-0.525178 7.304412 4.083966 
-2.898049 7.251110 -2.991956 
1.493509 3.179994 0.052003 
3.045438 5.403003 -0.005190 
2.211565 4.353170 -0.100481 
0.877089 3.473789 1.654097 
3.125071 6.625130 -2.148020 
0.828851 -5.037589 -0.081879 
-0.945956 6.033565 3.297448 
1.867350 5.126104 -2.187746 
1.469058 6.802626 3.613311 
3.073750 5.798034 -0.384103 
-2.816498 5.361042 -0.281430 
2.075556 4.630905 -1.172493 
-0.461917 -1.171876 0.093166 
-2.708989 4.852880 -0.070101 
-0.053391 -5.033065 -2.575659 
0.489966 2.211366 0.748930 
1.041100 3.736513 -1.744213 
-0.931076 -4.613102 1.925585 
0.229052 5.007218 -2.603851 
-2.405352 5.070153 1.117969 
-2.301407 5.747505 -2.303091 
-3.090073 6.383967 -1.932723 
3.210012 6.017370 -0.373111 
1.834317 5.981535 2.633994 
-0.277333 1.438993 -0.622610 
1.453468 3.504022 -1.208827 
-0.063514 0.161075 0.485454 
-2.846203 6.177809 -1.728194 
0.151411 -5.037668 1.384860 
2.250577 5.946690 -2.258775 
0.994162 -4.349521 0.492015 
1.570655 5.026163 -2.104020 
-2.618201 4.746367 -0.374769 
1.274105 6.945888 3.580940 
2.413402 -4.756642 1.096135 
-0.582799 2.304480 1.016903 
-0.661065 5.871996 3.265549 
-1.259002 2.851127 -0.290552 
-1.268507 5.100673 2.564160 
-0.187231 -5.037589 -1.768411 
-0.397207 -5.037589 2.034666 
-0.898503 2.682237 0.777013 
0.890424 5.147841 2.748950 
-2.000400 -4.583100 0.293547 
0.451042 -2.010667 0.088351 
0.641868 2.424279 -1.064124 
0.165478 6.614978 3.593606 
-0.259988 1.698611 -0.050573 
0.257867 5.496646 2.901799 
-0.362103 2.088804 0.733136 
-2.710916 5.685648 -1.351007 
2.184015 5.484991 -1.917222 
-3.456585 7.299205 2.319412 
1.866750 -4.627073 -1.151782 
1.899497 -5.037589 0.105139 
3.982388 6.937617 -0.042927 
0.431985 3.831363 2.043550 
-0.405336 6.062815 -3.424441 
-2.789842 6.586796 -2.534007 
-0.099405 -2.405072 0.443193 
0.424996 -4.568045 1.916451 
-0.289732 -3.420671 0.332638 
1.980578 4.589767 1.280666 
2.011583 6.759536 -3.088546 
-1.842604 -4.663010 -1.432408 
0.006329 -1.792410 0.462606 
-1.691796 3.586406 0.423825 
2.934486 5.610057 -0.533753 
1.633686 -4.585968 1.210157 
-2.821352 5.448499 -0.596914 
-2.263903 7.303942 -3.410836 
1.343109 2.925332 0.757064 
-0.908243 2.790546 1.144108 
-1.448975 3.340527 -1.053819 
0.455422 0.811612 0.212168 
-1.833322 5.992443 -2.642739 
-1.164551 5.047659 2.577621 
-3.820269 7.287948 -1.281325 
-2.400786 -4.983482 1.314645 
-0.590450 2.906668 1.412095 
-1.377792 3.014467 -0.202890 
2.596588 4.989187 0.182925 
0.250387 5.361885 3.009801 
1.998318 7.172539 3.606309 
-0.800880 -4.627525 2.044032 
3.530010 6.994833 1.917536 
1.398567 6.816222 -3.650158 
-0.369357 4.646508 2.364625 
2.723545 -4.891397 0.395465 
0.115341 4.422592 -2.253419 
-2.592956 6.732748 -2.856837 
3.670336 7.083264 -1.277295 
0.454603 -2.372521 -0.004617 
2.028936 -4.626087 0.823384 
1.421104 6.307140 3.305104 
0.227327 4.673731 2.590593 
2.923531 6.067043 1.833695 
3.903013 7.135452 -1.259798 
2.226507 4.238693 -0.706575 
-3.345737 6.089365 -0.899503 
-2.091105 3.916227 -0.455978 
-1.535059 5.667204 -2.815302 
-1.574618 -4.776736 -2.177081 
1.759194 5.030402 -1.952668 
-0.843699 -5.037651 1.554143 
-0.486068 4.031361 -1.957371 
1.590276 5.849740 -2.694975 
-1.721157 3.224114 0.024302 
0.086292 -5.037589 -0.296532 
0.342194 5.980121 3.380629 
-2.761558 6.818374 -2.495801 
1.004974 4.260689 2.123692 
-1.914987 -4.998085 -1.941902 
-0.828130 3.474493 1.456374 
-0.347778 -5.037589 1.832405 
-0.392953 -3.458508 0.199998 
-0.261278 2.727421 1.187309 
0.828674 6.797048 -3.808003 
2.355219 4.526023 -0.869580 
2.031842 -4.849514 1.842717 
-1.130181 2.862610 -0.640874 
0.508736 1.874871 -0.768723 
-3.346221 6.763339 -1.551251 
-2.355293 6.419610 2.809809 
-0.524813 4.371287 -2.359008 
3.465138 7.152131 -1.854690 
0.817036 4.532975 -2.378466 
0.865827 -4.367485 -0.800623 
-2.286324 -4.709915 1.038691 
-2.552415 5.254324 -1.488027 
0.955420 2.313722 -0.084895 
-2.395592 -5.036533 0.496712 
-0.146524 -5.037589 0.783133 
3.309441 6.241284 0.628500 
1.857846 -5.037589 0.317124 
-1.264076 6.267327 -3.342330 
-1.917210 4.104013 -1.185255 
2.129007 4.272778 -0.390878 
3.217296 6.241371 1.518642 
-3.081680 7.200565 2.762591 
0.433772 -4.049748 0.450819 
-0.989158 6.675554 -3.497228 
1.152018 2.657520 0.762456 
0.081696 3.984203 -2.179835 
0.310105 4.199016 2.096764 
-0.339229 5.518407 3.097183 
-2.301739 5.290355 1.571645 
-1.644578 3.545664 -0.500524 
0.556331 6.497417 -3.481066 
-3.032113 6.384686 1.658820 
-3.924418 6.908631 -0.567134 
-0.655853 4.375136 -2.128503 
-1.939834 4.964713 -1.988361 
0.513033 4.923225 2.510768 
0.060770 -4.771901 2.679383 
-1.231861 3.952534 -1.535263 
3.855274 6.928517 0.977551 
2.571041 7.039571 3.122066 
-1.602433 3.741434 0.902455 
-2.984944 7.047888 2.736319 
-0.020511 -5.031628 2.607384 
-1.579879 4.251625 1.460577 
-0.956439 2.310515 -0.038012 
2.396348 4.450760 0.577291 
-0.418774 3.388994 -1.772189 
-1.136084 2.676731 0.334655 
-0.038774 0.054238 0.486634 
-0.258535 2.682379 1.372031 
2.129551 -4.615569 -0.284840 
-2.455158 7.021912 3.200346 
0.946422 -5.037578 -2.017368 
-0.055878 -4.914676 2.752632 
0.346304 4.556301 2.505244 
-1.029898 7.223041 4.021499 
1.044843 3.874375 -1.611396 
-0.553645 6.363152 3.589549 
0.519995 4.777849 2.612951 
-1.256742 5.426415 -2.580562 
2.149732 4.951726 -1.426771 
-0.993264 -4.324380 0.195293 
-1.698227 6.590506 -3.154303 
0.052261 -3.078961 -0.441812 
-2.818378 5.111485 0.527729 
-0.005545 3.073475 1.428950 
-0.943855 4.044459 2.007206 
-0.819452 5.838826 -3.208551 
3.541821 6.855433 -1.216191 
-0.686949 3.576206 -1.596129 
2.309978 6.398366 -2.582208 
-3.964935 7.298960 -0.843006 
-1.048013 3.372980 1.477396 
3.241874 6.013454 -1.083811 
2.242170 4.441558 -1.010495 
0.487338 3.604417 -1.685977 
1.121428 3.589316 -1.337903 
-2.921032 5.239280 0.377881 
-2.880987 5.590547 -1.297768 
-1.699330 3.516737 0.082387 
-0.748294 2.262263 -0.869662 
1.004672 2.193153 0.463842 
2.305769 6.537577 -2.699177 
2.468276 6.649582 -2.645876 
0.902849 5.749962 3.129498 
-2.295272 4.197808 -0.270241 
2.295070 4.184719 0.192159 
1.473219 4.909636 -2.315521 
-1.535166 4.412064 -1.898289 
-3.591129 6.867773 -1.089214 
-0.166921 -4.509118 -1.724547 
1.343245 7.254700 3.767708 
-3.976886 7.290287 1.279472 
0.838732 3.842278 1.920180 
1.454952 2.860421 0.376117 
-3.416263 6.405094 0.602000 
0.004696 4.129230 -2.269427 
-0.363441 -3.387313 -0.250375 
-1.206182 4.224455 -1.990358 
0.682785 3.307642 -1.635071 
-1.989772 -4.692163 1.422253 
-2.636227 -5.023955 0.423060 
0.234777 5.049884 2.629567 
-1.139201 -5.037590 1.816931 
-1.726473 3.376066 0.553946 
0.358869 6.345042 3.603246 
-1.212329 4.216124 1.980623 
-1.984328 7.052414 -3.533042 
1.795352 6.010790 -2.906710 
3.137621 6.089825 -1.470004 
-1.505136 4.753783 -2.180235 
1.742780 7.272350 3.615207 
0.238126 5.183240 2.901396 
-2.089122 4.065046 0.781224 
-0.226545 -2.243620 -0.396227 
1.635820 3.816582 1.284376 
-0.930200 5.368688 -2.877727 
1.949278 6.984601 -3.290761 
-2.777542 5.026015 0.459520 
0.482519 0.490905 0.108154 
-1.592211 7.066259 -3.533248 
-0.539901 -5.035666 -2.435831 
-0.203629 -4.068952 0.600693 
-1.719163 6.989595 3.627538 
2.488561 6.806024 2.757810 
-2.230343 5.436548 -2.103500 
-2.756218 5.556017 1.050648 
-2.138009 4.945032 -1.755009 
0.824264 -4.768225 -2.543936 
-0.646443 6.454959 -3.439040 
-1.981163 -5.037589 0.616614 
2.206329 4.111800 -0.484259 
-3.312886 6.150391 0.027668 
-2.955023 5.739220 1.354257 
1.589716 -5.037589 0.104926 
-1.097810 5.394186 2.834943 
2.800902 6.313333 1.949764 
2.891652 5.504354 -1.136970 
-1.828880 5.084015 -2.186567 
0.033662 2.984625 -1.373937 
-2.660189 -4.894524 0.706134 
0.991591 2.650963 -0.618156 
-3.177705 6.158914 -0.955790 
0.542779 1.989006 -0.825265 
1.370340 3.464327 -0.952817 
2.394911 4.443893 -0.565156 
1.802111 4.403653 1.639597 
0.134659 6.023730 3.232720 
-2.117229 -4.636646 -0.703600 
0.372232 -5.037589 -1.708907 
-1.771734 -4.900758 2.107139 
0.409951 -2.930896 -0.178041 
0.914944 4.448750 2.079991 
-0.814994 -5.037589 0.439471 
0.793870 6.924367 -3.703190 
3.731534 6.664176 0.798568 
2.558765 6.190731 2.143039 
-0.330590 -3.223598 -0.294938 
1.428436 3.853749 1.542436 
-3.759387 6.899813 0.309261 
1.540441 6.125693 3.127984 
1.481652 5.375562 2.641436 
0.609708 1.313937 -0.105795 
1.989757 3.679696 -0.166514 
-2.172332 4.826257 -1.592593 
2.719512 -4.863451 -0.386413 
-2.285439 5.516294 1.825906 
-0.120090 -0.097065 0.470990 
0.878404 3.762908 1.849262 
-2.307613 6.153474 2.636503 
-1.315466 2.675416 -0.455369 
0.437129 5.016095 2.582762 
3.615920 6.774374 -0.760504 
0.190121 5.536807 -2.931667 
-1.326258 2.903041 -0.759514 
3.056961 6.401891 2.004642 
-0.280142 6.536376 3.538086 
-0.366331 -1.452652 0.290166 
-1.992656 4.442076 -1.441869 
0.122998 3.921957 2.140097 
0.440496 2.055276 0.663363 
-0.259480 -1.095965 0.394608 
2.840703 5.663230 -1.011135 
1.930742 4.062133 -1.113140 
0.204313 6.862945 -3.743927 
-1.283898 -5.037343 1.966317 
-0.773108 4.200464 -2.179744 
2.821708 6.005522 -1.560272 
-1.207147 5.470386 -2.840554 
-1.269797 3.117405 0.712326 
-0.212628 7.183260 -3.944581 
-2.079657 -5.037589 0.162390 
3.457212 6.487129 -1.340345 
2.297184 5.028706 1.274538 
0.941960 7.001411 -3.717795 
-3.920384 7.020318 0.944716 
-0.449078 -5.037589 2.112427 
-0.278623 -2.846418 -0.350918 
3.225261 6.065174 0.481542 
1.764764 4.026884 -1.325757 
-0.273278 -4.783900 -2.683285 
0.627757 5.281252 -2.903933 
-0.723618 2.021219 0.699411 
-0.518520 7.289893 3.997992 
2.451999 4.688816 -0.893624 
0.385127 -0.949748 -0.276790 
1.259767 7.182669 3.931704 
-2.225622 5.645069 2.289609 
2.191994 -4.700054 1.150976 
1.706356 3.895116 0.908901 
2.157294 6.990689 -3.162747 
-1.570163 -5.037589 -0.105435 
0.566322 2.235977 0.979863 
-0.364829 3.805267 -1.842524 
-1.493117 6.939711 -3.693495 
2.539402 6.487673 2.436742 
-1.270060 4.499338 -1.921459 
-0.281627 -3.514564 0.339002 
0.266963 -4.330080 0.998871 
2.969756 5.919022 -1.572699 
1.522504 -4.784302 -2.226946 
-0.485520 0.227513 0.069927 
1.817658 6.338366 -3.126817 
-0.623286 6.852153 -3.690640 
-0.983901 -5.037589 -0.750258 
0.871021 -5.037589 1.884470 
-0.392533 4.546010 -2.298610 
-0.570746 5.224263 -2.686767 
0.478946 0.345396 -0.113670 
0.328359 3.297090 1.734657 
2.130196 4.484096 -0.850981 
-2.638117 -4.815557 0.685090 
3.400303 6.118076 0.750666 
1.395113 6.174664 -3.021262 
3.276402 6.097610 0.170235 
1.104360 -4.358355 -0.297094 
0.783159 6.211353 -3.257397 
1.770762 -5.036690 1.640621 
3.722051 6.681729 0.889022 
-1.108726 -5.037589 0.162408 
0.015561 7.023085 4.034388 
-2.168635 -4.798505 1.629184 
0.238061 2.957352 1.542733 
-0.564381 7.295039 -4.001301 
0.577602 2.682400 -1.037996 
1.929137 6.226215 2.977933 
-0.401983 -4.703570 2.455724 
0.365359 7.011264 4.010585 
2.886356 5.703912 -1.447848 
2.018349 4.305203 0.835682 
-2.707775 6.084908 -2.156883 
2.003332 5.536063 2.148233 
0.885913 -4.294507 -0.170125 
-4.118229 7.302949 0.430010 
1.175499 5.942111 3.163154 
-3.992520 6.954185 0.028640 
-1.308112 5.572732 -2.655076 
2.022802 6.044848 2.541757 
3.304634 6.867584 1.777729 
1.451384 3.871161 1.254878 
-2.536428 5.056091 1.263450 
-1.998615 4.167473 0.644988 
2.611421 5.143975 -0.676390 
1.784299 -4.552555 -0.660054 
2.148743 4.002489 -0.436175 
0.899099 -5.037589 -0.120165 
0.866036 1.785801 0.096076 
0.593941 3.765698 1.961014 
1.839727 -5.037589 -1.100478 
-2.305698 4.188783 -0.004901 
-2.875175 6.313480 2.169030 
-2.721156 4.871583 0.012688 
-2.642272 5.804429 -1.623947 
0.926321 4.082129 1.826423 
-0.334995 2.204684 -0.825375 
1.722328 3.635090 -0.424468 
-2.304109 4.700256 0.760315 
-2.272603 5.471727 2.089582 
-4.035773 7.025767 0.032306 
-0.412351 -2.143198 0.198832 
3.023742 5.895012 1.432603 
1.566011 2.980062 0.164542 
1.330552 -5.033698 -2.178509 
0.944572 -5.037589 0.649259 
0.160090 -5.037590 -2.161783 
-2.649192 6.906422 -2.691038 
2.368619 6.132883 2.301021 
-0.550445 6.802074 -3.671168 
-0.506047 -4.009562 -0.335452 
2.206018 -4.635675 -0.306487 
3.275669 7.290089 2.350424 
-0.444723 3.663717 -1.936700 
1.773784 3.719009 0.430555 
-1.101921 4.648930 -2.339035 
1.377336 6.552160 3.485222 
-1.093498 5.254443 -2.539753 
0.506892 4.845967 2.463752 
-0.838847 7.040737 3.767429 
1.890409 -5.035031 1.632055 
-0.046742 -5.037589 -1.691109 
-0.620199 6.314433 3.356444 
-0.012289 0.024837 -0.487610 
2.013685 4.658791 1.307233 
0.342174 0.600098 -0.359842 
0.831602 2.432033 0.929625 
3.057568 6.881497 2.189840 
1.888274 4.536047 -1.357650 
3.370806 6.557927 1.645493 
1.358961 3.164616 -0.997009 
-0.539624 -4.904464 2.700123 
-0.239034 2.567321 -1.090957 
-2.487594 6.852519 -2.796826 
-2.093995 -5.037235 -0.987764 
-2.320081 -4.667217 0.374437 
-3.835438 6.713046 -0.285374 
-0.500805 1.580446 -0.567642 
1.462573 7.295681 -3.768867 
-0.976068 -4.637685 2.010637 
2.262891 5.712652 -2.310878 
0.006779 4.478588 2.481863 
-2.164647 -5.034299 -1.320186 
1.732491 4.613918 1.622097 
0.332906 1.674544 -0.736819 
-2.359687 -5.036775 0.313927 
1.870794 7.241205 -3.523654 
-2.381251 4.944121 1.406054 
4.039567 7.304489 -0.778756 
-2.097763 4.172983 -0.156737 
-1.832626 4.805871 1.686884 
-1.140176 6.254787 -3.178754 
3.356006 6.437431 0.952487 
1.821465 -5.037589 1.166235 
1.372097 3.372222 0.847066 
-3.296408 6.583271 -1.822209 
-1.764098 -5.037589 -0.301213 
-1.375322 3.656702 -1.141151 
2.045115 4.224197 -0.612418 
2.070215 5.510300 2.321862 
-1.432461 4.802777 -2.035558 
-2.103557 5.101133 -1.939256 
1.228834 -4.439911 -0.792636 
0.583606 2.462589 -0.875075 
1.683507 3.725650 -0.715724 
1.046731 6.400337 -3.303952 
-1.092208 3.382072 -1.194536 
-1.193216 -4.630688 -1.857458 
-1.865047 6.906315 -3.497720 
1.429961 -5.037589 -1.560922 
-1.245726 6.174298 3.288468 
2.857347 5.749324 -1.116770 
3.375232 7.073380 -2.264862 
3.096057 5.758017 1.027959 
-2.815851 5.030012 -0.102114 
1.666968 3.513371 0.329417 
-1.054253 5.585789 -2.774250 
0.565907 5.414362 -2.806587 
-1.271265 2.747938 -0.666063 
1.303350 -4.797246 -2.377287 
0.234845 -4.140179 0.626320 
-2.622649 6.958762 -3.014267 
-2.496019 7.304157 3.248547 
-1.370582 4.638062 2.184546 
0.435401 3.570178 1.678444 
-0.260111 1.811114 0.578695 
1.448270 5.701901 -2.671507 
2.581869 6.365761 -2.280319 
-2.268502 4.235872 0.549960 
1.866418 4.198589 1.003802 
0.706039 3.875635 1.786828 
-1.719323 3.603104 0.348359 
-2.102926 5.301180 1.839221 
-1.006644 2.756598 1.030279 
-3.276633 6.752831 1.679132 
2.628964 4.800853 -0.510664 
-2.027257 3.937797 -0.726180 
1.880829 6.588138 3.047035 
-1.100511 -5.037589 0.248942 
-0.375400 -2.963051 -0.241708 
-0.960862 7.039144 3.737035 
-1.274739 4.573103 -1.972307 
-0.635496 4.547167 -2.442160 
-0.333917 7.072553 -3.864972 
-0.990166 7.159591 3.994788 
-0.898999 5.551105 2.806078 
1.018235 -4.765467 2.466788 
1.633645 6.631217 -3.216143 
-0.988927 5.196054 -2.544105 
0.031623 5.028426 2.816533 
-3.914406 6.838994 -0.254326 
-1.612739 -5.037589 0.558509 
3.959793 6.903573 0.133055 
1.643963 4.254989 -1.673424 
2.458558 4.909098 0.691751 
0.838668 5.430496 2.747823 
1.439757 5.273392 2.374399 
0.023034 -4.901340 2.753004 
-3.511880 7.113314 -1.708282 
0.392487 0.167105 -0.292800 
1.241118 -4.467031 0.958922 
-3.459025 7.286948 -2.343133 
0.620776 -5.036804 2.293264 
-0.343492 5.667876 -2.998358 
-0.285609 4.342589 2.188742 
0.128081 3.921488 -1.945129 
-3.571442 6.698696 0.745890 
-2.054371 4.003489 -0.767599 
-1.771597 -4.534250 -0.462164 
0.792925 -4.630671 2.060429 
1.419186 -5.035349 2.080019 
0.447158 -2.356009 0.083307 
-1.634192 7.136227 3.762124 
0.485878 2.983346 -1.499875 
0.822132 2.514791 1.002599 
0.204698 1.258488 -0.556691 
-0.418125 -2.535782 0.172714 
2.259588 4.136333 0.252531 
1.090705 2.823058 0.659920 
3.061337 7.286405 -2.617384 
0.004360 -4.364055 -1.165900 
1.980640 3.685542 -0.279864 
-2.324559 4.737788 -1.250674 
0.442660 -4.129365 0.493879 
2.529378 5.274938 -1.551107 
-2.458939 -4.974281 1.213432 
2.337041 4.905385 1.024487 
-1.238937 3.855060 1.451936 
1.853741 -5.037589 0.426655 
3.362070 6.934361 1.756977 
0.783144 -5.037589 -0.614751 
2.027082 -5.035213 1.479404 
2.248846 6.590528 3.027315 
-1.649940 3.579348 0.551405 
-0.443949 -5.033681 -2.520918 
-2.403810 -4.810163 -1.277703 
-1.324191 -5.037589 1.224346 
-2.092424 3.870560 -0.290240 
-2.580611 5.858920 -2.094680 
-1.580892 3.756974 -0.958077 
2.482252 5.864656 2.215640 
-3.410194 6.915912 1.635608 
1.454284 5.032153 -2.190457 
4.048155 7.297984 -0.065807 
3.102485 7.289506 -2.798892 
-3.743663 7.084418 -1.046327 
2.019412 4.180680 1.102259 
-0.690196 6.400485 3.589030 
-0.607658 6.147614 3.447133 
-2.255661 4.251916 0.637500 
-0.417904 5.151481 -2.861501 
-0.867689 2.550972 -0.686963 
-0.326249 6.182455 -3.506379 
-0.481098 -0.249351 0.052465 
-0.441825 -0.705417 0.181625 
-2.356810 4.411673 0.636118 
-2.854782 6.620968 -2.492287 
-1.610168 7.109401 -3.755135 
4.035176 7.165936 0.828353 
0.033126 -4.673398 2.373851 
-1.130992 4.017969 -1.659775 
3.270247 6.357802 1.067051 
-1.374810 3.840688 -1.580002 
-0.306388 2.426580 -0.982705 
1.704199 3.713866 -1.080002 
-1.055703 4.504789 -2.263740 
0.458052 -1.583701 0.083172 
-3.455291 6.550639 0.848490 
-0.626731 -5.037589 0.353759 
0.317432 2.776355 1.204774 
0.366855 0.258373 -0.326314 
0.450500 4.414372 2.400821 
0.248620 4.116188 -2.053796 
-2.203134 5.984416 2.336691 
1.249325 5.867447 -2.880770 
-1.373485 5.291081 2.425933 
-2.596307 4.857986 -0.787098 
-2.639699 5.760114 -1.918673 
3.195231 5.679803 -0.349218 
-0.571608 -5.030475 2.555229 
1.063454 5.434516 2.671352 
-0.484050 3.609555 -1.893341 
0.020074 -5.037590 -0.112738 
0.502606 6.862576 -3.715345 
-0.819059 5.330224 2.886919 
1.102058 -5.037589 -0.676006 
-0.234340 6.689217 3.824116 
1.351954 7.058762 -3.626927 
0.549089 3.294116 1.676112 
1.905668 3.614475 -0.446087 
-1.880917 -4.547085 -0.025827 
1.637679 4.978559 -2.254241 
-3.472734 7.202235 -2.252887 
2.910432 6.987473 -2.484321 
0.359105 1.616512 -0.688807 
-2.870551 6.483278 2.031639 
2.810186 6.793900 2.697391 
0.740184 5.593102 2.878672 
-1.967185 3.950805 -0.021731 
2.083248 6.445247 3.036121 
-1.811391 4.779980 -1.686455 
-1.926030 -5.033947 1.637530 
-1.593175 -4.918376 2.245351 
-3.151874 5.892619 0.152540 
1.239814 2.487206 0.318639 
2.388201 5.948611 2.390071 
-3.159818 6.139390 0.973376 
1.810824 3.695302 -0.007870 
-3.729035 6.982601 0.845302 
-2.634376 5.147441 -1.186744 
-0.777414 3.402648 1.434045 
1.670332 3.209886 0.379303 
-0.814530 -5.037589 -1.897904 
-0.965757 3.097790 1.332015 
2.957879 6.922438 2.363315 
-0.272741 -1.864128 0.372461 
1.521511 4.889702 -2.036530 
-0.011388 -4.651911 2.290718 
-0.191032 2.442065 1.238595 
-1.869282 4.910046 -2.009577 
-0.994055 -4.319952 -0.050777 
-2.594900 -4.838314 0.873810 
1.336543 3.778638 -1.563321 
-2.922698 5.216338 -0.226503 
1.107121 4.294566 -2.095479 
-1.518326 3.918233 -1.510148 
-2.910045 5.665652 -1.344515 
-2.637551 4.761149 -0.293217 
1.401810 4.049934 1.465673 
-0.992496 4.323414 -1.958501 
-0.908169 5.456744 2.742601 
0.492993 -5.037590 0.200993 
1.330438 3.105201 0.572584 
-3.593827 7.132738 -1.972565 
1.774576 6.394128 -3.190565 
1.253186 -4.456423 -0.872368 
1.586292 4.690372 1.827911 
-2.147537 4.590808 0.976797 
0.181776 6.500952 -3.522932 
1.347076 6.708307 3.599076 
1.470669 4.121250 1.459346 
1.668151 3.621324 -0.577818 
-1.603833 -5.030549 2.053489 
-3.042079 5.531940 -0.710586 
-3.887684 7.098187 0.249628 
-2.560617 5.298522 -1.113232 
1.472171 -4.550384 1.191597 
1.949694 7.197027 -3.446456 
1.120173 5.379303 -2.816204 
3.062503 6.352674 -1.559559 
-2.319349 4.647019 -1.139815 
-0.768903 2.015574 0.056425 
0.563803 6.019852 -3.375299 
1.355050 -4.575281 1.458998 
1.706807 6.153546 3.059968 
0.373692 -5.037589 -0.774992 
2.224030 4.071191 0.213072 
-0.433605 -1.106981 0.186742 
