-1.208590 1.028110 0.587900 0.000000 0.000000 0.000000 
-1.080940 0.787647 -0.265249 0.000000 0.000000 0.000000 
-0.725631 1.420500 1.128490 0.000000 0.000000 0.000000 
-1.205010 1.034170 -0.852759 0.000000 0.000000 0.000000 
-0.853912 1.421170 -1.084010 0.000000 0.000000 0.000000 
-0.690054 0.888805 0.422057 0.000000 0.000000 0.000000 
-1.111420 1.033990 0.219663 0.000000 0.000000 0.000000 
-0.222320 0.787375 1.087930 0.000000 0.000000 0.000000 
-0.238593 1.150420 0.060505 0.000000 0.000000 0.000000 
-0.458227 1.283280 -0.598620 0.000000 0.000000 0.000000 
-1.133980 0.787138 -0.120359 0.000000 0.000000 0.000000 
-0.465749 0.926816 0.626631 0.000000 0.000000 0.000000 
-0.827911 1.155580 0.497866 0.000000 0.000000 0.000000 
-1.406600 0.784106 0.348532 0.000000 0.000000 0.000000 
0.716538 1.129480 -0.466362 0.000000 0.000000 0.000000 
0.115561 0.786252 0.833650 0.000000 0.000000 0.000000 
-0.235352 1.284180 1.051160 0.000000 0.000000 0.000000 
-0.574374 0.782468 -1.067570 0.000000 0.000000 0.000000 
-1.216080 1.014250 -0.217360 0.000000 0.000000 0.000000 
-0.096344 0.901648 -1.093250 0.000000 0.000000 0.000000 
-1.118900 0.788134 -0.076479 0.000000 0.000000 0.000000 
-0.393361 1.023080 0.759370 0.000000 0.000000 0.000000 
-0.983681 1.155170 -0.516645 0.000000 0.000000 0.000000 
-0.917170 0.915154 1.016020 0.000000 0.000000 0.000000 
-0.193860 0.790465 -1.083290 0.000000 0.000000 0.000000 
-1.333400 0.905494 0.109640 0.000000 0.000000 0.000000 
-0.912857 0.791658 -0.955857 0.000000 0.000000 0.000000 
-1.140320 0.783908 -0.775767 0.000000 0.000000 0.000000 
-1.233270 0.952980 -0.729843 0.000000 0.000000 0.000000 
-0.814669 1.029960 0.111384 0.000000 0.000000 0.000000 
-1.448040 1.424530 0.316760 0.000000 0.000000 0.000000 
-0.283628 0.785403 0.951292 0.000000 0.000000 0.000000 
0.060912 1.436100 0.557516 0.000000 0.000000 0.000000 
-0.782507 1.033870 -0.617268 0.000000 0.000000 0.000000 
-1.283080 1.245400 0.782439 0.000000 0.000000 0.000000 
-1.346130 1.179240 0.674709 0.000000 0.000000 0.000000 
-1.051440 0.788010 0.591982 0.000000 0.000000 0.000000 
-0.767107 0.787200 0.525332 0.000000 0.000000 0.000000 
-0.504172 1.430140 0.678954 0.000000 0.000000 0.000000 
-1.101380 0.789621 0.053386 0.000000 0.000000 0.000000 
-1.163460 1.048470 -0.656599 0.000000 0.000000 0.000000 
-0.593381 1.422120 0.579883 0.000000 0.000000 0.000000 
0.128641 0.788897 0.980214 0.000000 0.000000 0.000000 
-0.934768 1.414010 0.611595 0.000000 0.000000 0.000000 
-1.348340 1.151150 -0.376150 0.000000 0.000000 0.000000 
-1.232590 0.889649 -0.692757 0.000000 0.000000 0.000000 
-1.172520 1.384100 -0.223759 0.000000 0.000000 0.000000 
-1.471070 0.872519 -0.302826 0.000000 0.000000 0.000000 
-0.257927 0.782811 -0.956503 0.000000 0.000000 0.000000 
-0.389880 1.222260 -1.194590 0.000000 0.000000 0.000000 
-0.603893 1.399960 -0.312591 0.000000 0.000000 0.000000 
-1.057560 0.909239 -0.678115 0.000000 0.000000 0.000000 
-1.334400 0.917207 -0.594278 0.000000 0.000000 0.000000 
-1.528270 1.011840 -0.143505 0.000000 0.000000 0.000000 
0.024828 1.437360 0.681994 0.000000 0.000000 0.000000 
-0.838591 0.789202 -0.210587 0.000000 0.000000 0.000000 
-0.720836 1.433480 -1.028790 0.000000 0.000000 0.000000 
-1.489970 0.922612 -0.027767 0.000000 0.000000 0.000000 
-1.276570 1.315840 -0.782740 0.000000 0.000000 0.000000 
-0.982061 0.786027 -0.109505 0.000000 0.000000 0.000000 
0.433611 1.032070 -0.856222 0.000000 0.000000 0.000000 
-0.446450 1.404240 0.912309 0.000000 0.000000 0.000000 
-1.208790 0.787762 -0.476449 0.000000 0.000000 0.000000 
-1.426710 1.414210 -0.126727 0.000000 0.000000 0.000000 
-1.169490 0.903389 -0.594707 0.000000 0.000000 0.000000 
-1.027970 1.150240 -0.048840 0.000000 0.000000 0.000000 
-0.383794 1.137570 -0.671928 0.000000 0.000000 0.000000 
0.004614 0.788497 0.904268 0.000000 0.000000 0.000000 
-0.374372 0.786236 -1.101600 0.000000 0.000000 0.000000 
-0.598878 1.265680 -0.881276 0.000000 0.000000 0.000000 
-0.986639 0.902638 -0.526691 0.000000 0.000000 0.000000 
-0.795099 0.789865 0.117669 0.000000 0.000000 0.000000 
0.242785 1.153340 0.887912 0.000000 0.000000 0.000000 
0.505637 0.785980 0.661099 0.000000 0.000000 0.000000 
-1.320860 0.789322 -0.104850 0.000000 0.000000 0.000000 
-1.313080 0.791241 0.205659 0.000000 0.000000 0.000000 
-0.591376 1.411700 -0.984127 0.000000 0.000000 0.000000 
-1.114260 1.026990 0.715512 0.000000 0.000000 0.000000 
-0.121387 1.294420 -0.388425 0.000000 0.000000 0.000000 
0.579405 1.449160 0.035880 0.000000 0.000000 0.000000 
-0.803825 0.784107 0.750339 0.000000 0.000000 0.000000 
0.439588 1.300110 -0.897431 0.000000 0.000000 0.000000 
-0.671599 0.914445 -0.394546 0.000000 0.000000 0.000000 
-0.352756 0.787377 -0.967903 0.000000 0.000000 0.000000 
0.024832 0.784809 -1.028060 0.000000 0.000000 0.000000 
-0.135668 1.201580 0.222237 0.000000 0.000000 0.000000 
-1.325960 1.273880 0.469696 0.000000 0.000000 0.000000 
-1.052220 0.784949 -0.097372 0.000000 0.000000 0.000000 
-0.958321 1.027600 -1.009570 0.000000 0.000000 0.000000 
-1.069540 0.792293 0.849832 0.000000 0.000000 0.000000 
-0.798674 0.787773 -0.876183 0.000000 0.000000 0.000000 
-1.352990 1.362350 0.690244 0.000000 0.000000 0.000000 
-0.173446 1.182880 -0.536605 0.000000 0.000000 0.000000 
0.747331 0.983550 0.219824 0.000000 0.000000 0.000000 
-0.532246 0.783855 -0.942216 0.000000 0.000000 0.000000 
-1.342710 0.784827 -0.466850 0.000000 0.000000 0.000000 
-1.446320 0.786838 -0.210795 0.000000 0.000000 0.000000 
-0.455999 0.785087 -1.084790 0.000000 0.000000 0.000000 
-0.987848 1.043320 -0.135269 0.000000 0.000000 0.000000 
-0.440568 0.786929 0.930745 0.000000 0.000000 0.000000 
-1.576390 1.280210 -0.016912 0.000000 0.000000 0.000000 
0.553067 1.131960 -0.076244 0.000000 0.000000 0.000000 
-0.768502 0.790073 1.012340 0.000000 0.000000 0.000000 
-0.581265 0.787258 0.674834 0.000000 0.000000 0.000000 
0.801207 1.326600 -0.182864 0.000000 0.000000 0.000000 
0.181204 1.174650 -0.607719 0.000000 0.000000 0.000000 
0.406162 1.024620 -0.506138 0.000000 0.000000 0.000000 
0.336155 0.908578 0.677627 0.000000 0.000000 0.000000 
-0.888353 0.916074 -0.400131 0.000000 0.000000 0.000000 
-0.006091 1.036940 1.115670 0.000000 0.000000 0.000000 
-0.606206 0.906354 0.681414 0.000000 0.000000 0.000000 
-1.373800 0.940016 0.492847 0.000000 0.000000 0.000000 
-0.832118 0.784608 0.677152 0.000000 0.000000 0.000000 
-0.406405 0.905647 -0.693550 0.000000 0.000000 0.000000 
-1.181670 0.786582 0.743335 0.000000 0.000000 0.000000 
-0.760985 0.790629 0.288012 0.000000 0.000000 0.000000 
-0.757705 1.168160 0.630567 0.000000 0.000000 0.000000 
-0.346683 1.041940 1.171070 0.000000 0.000000 0.000000 
-0.955850 0.785120 0.163394 0.000000 0.000000 0.000000 
0.110555 1.175480 1.081970 0.000000 0.000000 0.000000 
-0.231054 0.789059 0.727314 0.000000 0.000000 0.000000 
-0.641592 1.411500 0.887976 0.000000 0.000000 0.000000 
-0.324669 1.178970 0.183073 0.000000 0.000000 0.000000 
-0.482924 0.787231 1.076260 0.000000 0.000000 0.000000 
-1.277270 1.399040 0.559732 0.000000 0.000000 0.000000 
-1.430790 1.279620 0.568868 0.000000 0.000000 0.000000 
-0.627924 1.013990 0.852789 0.000000 0.000000 0.000000 
-1.095950 1.437610 0.038789 0.000000 0.000000 0.000000 
-0.228755 0.913391 0.969682 0.000000 0.000000 0.000000 
-1.177020 1.030080 -0.382024 0.000000 0.000000 0.000000 
0.588051 1.042050 -0.322110 0.000000 0.000000 0.000000 
-0.268593 1.038580 -0.186407 0.000000 0.000000 0.000000 
-0.703207 0.791260 1.043050 0.000000 0.000000 0.000000 
-1.443240 1.168120 0.156671 0.000000 0.000000 0.000000 
0.204847 1.177700 1.062950 0.000000 0.000000 0.000000 
-0.594133 0.934229 -0.396507 0.000000 0.000000 0.000000 
-0.309178 1.134480 -0.097083 0.000000 0.000000 0.000000 
-0.862093 1.278920 0.632078 0.000000 0.000000 0.000000 
0.039510 1.191580 0.540082 0.000000 0.000000 0.000000 
-1.223060 0.917100 -0.703661 0.000000 0.000000 0.000000 
-1.116700 1.389120 0.233334 0.000000 0.000000 0.000000 
0.446138 0.864111 -0.762751 0.000000 0.000000 0.000000 
-1.013780 0.786995 -0.489475 0.000000 0.000000 0.000000 
-0.683676 0.889671 0.421934 0.000000 0.000000 0.000000 
-1.202310 0.790727 -0.223463 0.000000 0.000000 0.000000 
0.305264 1.154190 -1.040880 0.000000 0.000000 0.000000 
-0.565997 0.917026 -0.960130 0.000000 0.000000 0.000000 
-1.212850 0.786932 -0.694835 0.000000 0.000000 0.000000 
-1.047220 1.035170 -0.784034 0.000000 0.000000 0.000000 
0.105164 1.451980 -0.152430 0.000000 0.000000 0.000000 
-0.558350 0.792235 1.074210 0.000000 0.000000 0.000000 
-1.350950 1.283760 -0.426075 0.000000 0.000000 0.000000 
-1.429130 1.277820 0.026288 0.000000 0.000000 0.000000 
0.023031 0.783753 1.016940 0.000000 0.000000 0.000000 
-0.526151 1.032610 -1.022730 0.000000 0.000000 0.000000 
0.356071 0.783564 -0.243227 0.000000 0.000000 0.000000 
0.084035 1.024090 -0.742020 0.000000 0.000000 0.000000 
-1.414750 1.252160 0.286048 0.000000 0.000000 0.000000 
-1.124000 0.936335 0.837253 0.000000 0.000000 0.000000 
0.169471 1.416710 0.858484 0.000000 0.000000 0.000000 
-1.075670 1.135690 0.787799 0.000000 0.000000 0.000000 
-1.100190 1.288080 -0.550034 0.000000 0.000000 0.000000 
-1.403930 1.024310 0.052893 0.000000 0.000000 0.000000 
-1.477710 1.128310 -0.472325 0.000000 0.000000 0.000000 
-0.275669 1.240680 -1.185860 0.000000 0.000000 0.000000 
-0.350783 0.881839 1.099470 0.000000 0.000000 0.000000 
-1.254610 1.262430 0.608083 0.000000 0.000000 0.000000 
-0.328591 0.789862 0.820168 0.000000 0.000000 0.000000 
-0.048601 1.128510 0.698546 0.000000 0.000000 0.000000 
-1.050730 0.788318 -0.270734 0.000000 0.000000 0.000000 
-0.102805 0.786714 -0.589107 0.000000 0.000000 0.000000 
0.552903 1.039430 -0.051341 0.000000 0.000000 0.000000 
-0.253298 1.238490 1.178770 0.000000 0.000000 0.000000 
-0.197136 1.122660 -1.196950 0.000000 0.000000 0.000000 
0.103223 0.935411 1.015870 0.000000 0.000000 0.000000 
-1.439280 0.786954 -0.244062 0.000000 0.000000 0.000000 
0.529835 0.908390 -0.675278 0.000000 0.000000 0.000000 
-1.166870 0.917406 0.331612 0.000000 0.000000 0.000000 
-0.524804 1.424870 0.773796 0.000000 0.000000 0.000000 
0.160426 1.049360 -1.042370 0.000000 0.000000 0.000000 
0.755589 1.023540 -0.268904 0.000000 0.000000 0.000000 
-0.830983 0.906089 -0.866101 0.000000 0.000000 0.000000 
-0.436049 0.912309 -0.975151 0.000000 0.000000 0.000000 
-0.732763 0.782935 -0.607335 0.000000 0.000000 0.000000 
-1.200490 1.376920 0.214891 0.000000 0.000000 0.000000 
-1.175640 0.910053 0.175459 0.000000 0.000000 0.000000 
-1.465550 1.402040 -0.472034 0.000000 0.000000 0.000000 
0.515904 0.916320 -0.694776 0.000000 0.000000 0.000000 
-0.854761 1.269110 0.631318 0.000000 0.000000 0.000000 
-1.201750 1.395150 0.669074 0.000000 0.000000 0.000000 
-0.149105 0.866040 1.106880 0.000000 0.000000 0.000000 
0.035610 1.169040 1.136120 0.000000 0.000000 0.000000 
-0.479307 0.906305 -0.829506 0.000000 0.000000 0.000000 
-0.580335 1.371400 -1.178650 0.000000 0.000000 0.000000 
-0.093244 0.786048 0.796973 0.000000 0.000000 0.000000 
-0.664784 0.961617 0.030226 0.000000 0.000000 0.000000 
-0.934305 1.196120 -1.061250 0.000000 0.000000 0.000000 
-0.626374 0.917820 -0.246513 0.000000 0.000000 0.000000 
-0.799682 1.158410 -1.115990 0.000000 0.000000 0.000000 
-0.961744 0.788276 -0.150041 0.000000 0.000000 0.000000 
-0.415707 0.787347 0.707731 0.000000 0.000000 0.000000 
-0.955828 0.791033 -0.612381 0.000000 0.000000 0.000000 
-0.876476 0.909973 0.060610 0.000000 0.000000 0.000000 
-1.264760 1.411470 -0.782435 0.000000 0.000000 0.000000 
-0.704135 0.791184 1.042990 0.000000 0.000000 0.000000 
-0.789399 1.118890 -1.111390 0.000000 0.000000 0.000000 
0.724914 0.793928 0.132652 0.000000 0.000000 0.000000 
-0.579750 1.256090 -0.319780 0.000000 0.000000 0.000000 
-1.315160 0.910870 0.264438 0.000000 0.000000 0.000000 
-1.434750 0.911105 0.382301 0.000000 0.000000 0.000000 
-1.207600 0.912391 -0.127882 0.000000 0.000000 0.000000 
-0.178056 1.209780 0.205201 0.000000 0.000000 0.000000 
-1.340020 0.896590 -0.588636 0.000000 0.000000 0.000000 
-1.479300 0.789729 -0.094669 0.000000 0.000000 0.000000 
-0.894668 0.784306 -0.019324 0.000000 0.000000 0.000000 
0.342294 0.782277 0.652597 0.000000 0.000000 0.000000 
-1.443540 1.407190 0.497831 0.000000 0.000000 0.000000 
-1.101300 1.371150 -0.351091 0.000000 0.000000 0.000000 
-1.050230 0.908769 -0.203324 0.000000 0.000000 0.000000 
0.358370 1.310940 -0.293902 0.000000 0.000000 0.000000 
-0.555118 0.786785 0.437748 0.000000 0.000000 0.000000 
-0.422351 1.255870 0.798990 0.000000 0.000000 0.000000 
0.253097 1.013980 0.284098 0.000000 0.000000 0.000000 
0.553296 1.012290 0.701925 0.000000 0.000000 0.000000 
-0.109351 1.145400 -0.023365 0.000000 0.000000 0.000000 
-0.674381 0.789941 0.066881 0.000000 0.000000 0.000000 
-1.185000 0.906575 -0.295011 0.000000 0.000000 0.000000 
-0.890626 1.036110 -0.518379 0.000000 0.000000 0.000000 
-0.534906 0.786924 1.067640 0.000000 0.000000 0.000000 
-1.528400 1.122420 0.300194 0.000000 0.000000 0.000000 
-0.211018 1.066020 0.180696 0.000000 0.000000 0.000000 
0.514169 1.436330 -0.332319 0.000000 0.000000 0.000000 
-1.214540 0.785385 0.101457 0.000000 0.000000 0.000000 
-1.045760 1.036350 -0.776541 0.000000 0.000000 0.000000 
-1.075270 0.907949 0.452714 0.000000 0.000000 0.000000 
0.690845 0.942795 -0.354914 0.000000 0.000000 0.000000 
0.157101 0.788395 0.472079 0.000000 0.000000 0.000000 
-0.878181 1.296950 0.932860 0.000000 0.000000 0.000000 
-0.405867 0.995120 0.346189 0.000000 0.000000 0.000000 
-1.310350 1.017580 0.331282 0.000000 0.000000 0.000000 
0.346699 1.462750 -0.113471 0.000000 0.000000 0.000000 
-0.513691 1.136630 -0.362636 0.000000 0.000000 0.000000 
0.193948 1.280450 0.733520 0.000000 0.000000 0.000000 
0.728097 1.152530 0.448967 0.000000 0.000000 0.000000 
-1.415860 0.892960 -0.447450 0.000000 0.000000 0.000000 
-1.413980 1.248480 0.583809 0.000000 0.000000 0.000000 
-1.030710 0.912523 0.115578 0.000000 0.000000 0.000000 
-0.219142 1.027970 -0.465492 0.000000 0.000000 0.000000 
0.239293 0.788536 -0.722483 0.000000 0.000000 0.000000 
0.782891 1.019200 -0.123025 0.000000 0.000000 0.000000 
-0.207136 1.040620 1.172110 0.000000 0.000000 0.000000 
-0.865855 1.279710 -0.732093 0.000000 0.000000 0.000000 
0.098699 0.905631 0.879195 0.000000 0.000000 0.000000 
-0.713142 1.201870 1.143080 0.000000 0.000000 0.000000 
-0.581197 1.029590 1.014460 0.000000 0.000000 0.000000 
0.410661 1.169070 0.887978 0.000000 0.000000 0.000000 
-1.063800 0.895302 0.879743 0.000000 0.000000 0.000000 
-1.293590 1.263630 -0.023329 0.000000 0.000000 0.000000 
-1.514250 1.158790 -0.330676 0.000000 0.000000 0.000000 
-0.950884 0.785354 -0.928499 0.000000 0.000000 0.000000 
-0.021726 0.787935 -1.052120 0.000000 0.000000 0.000000 
0.263317 1.279530 -0.853808 0.000000 0.000000 0.000000 
-0.458757 1.421750 -0.512506 0.000000 0.000000 0.000000 
0.278254 1.163350 0.472929 0.000000 0.000000 0.000000 
0.305160 1.292970 -0.485847 0.000000 0.000000 0.000000 
-0.035147 1.066210 -0.993722 0.000000 0.000000 0.000000 
0.257399 0.781888 -0.875210 0.000000 0.000000 0.000000 
-0.827511 0.788115 0.545448 0.000000 0.000000 0.000000 
-0.362700 0.916433 0.988664 0.000000 0.000000 0.000000 
-0.406823 1.418230 -1.171720 0.000000 0.000000 0.000000 
-0.470793 1.086040 -1.186060 0.000000 0.000000 0.000000 
-0.589975 0.785755 0.931248 0.000000 0.000000 0.000000 
-1.546980 1.396780 -0.243985 0.000000 0.000000 0.000000 
-1.559870 1.108880 -0.139797 0.000000 0.000000 0.000000 
-0.476248 0.787034 0.843886 0.000000 0.000000 0.000000 
-0.386853 1.133560 0.922298 0.000000 0.000000 0.000000 
-0.699723 1.086670 1.140630 0.000000 0.000000 0.000000 
-0.178278 0.787749 -0.073843 0.000000 0.000000 0.000000 
-0.229774 0.906911 0.971196 0.000000 0.000000 0.000000 
-0.533113 1.159150 -0.923405 0.000000 0.000000 0.000000 
0.108929 1.031310 -0.743654 0.000000 0.000000 0.000000 
-1.011100 1.039960 -0.432564 0.000000 0.000000 0.000000 
-0.692613 0.788430 -0.758883 0.000000 0.000000 0.000000 
-1.301480 0.784924 0.346431 0.000000 0.000000 0.000000 
0.194061 1.037290 0.537825 0.000000 0.000000 0.000000 
-1.136530 0.916518 -0.454307 0.000000 0.000000 0.000000 
-1.008350 1.260670 0.510699 0.000000 0.000000 0.000000 
0.655021 1.040880 -0.185751 0.000000 0.000000 0.000000 
-1.536230 1.270190 0.242636 0.000000 0.000000 0.000000 
-0.644062 0.785448 -0.673469 0.000000 0.000000 0.000000 
-1.154660 1.275960 0.069409 0.000000 0.000000 0.000000 
-0.299009 0.787259 -1.107450 0.000000 0.000000 0.000000 
-1.361030 1.172500 0.396359 0.000000 0.000000 0.000000 
-1.373310 1.032680 0.180148 0.000000 0.000000 0.000000 
-0.866014 1.032990 0.923621 0.000000 0.000000 0.000000 
-0.625703 1.158350 -1.168170 0.000000 0.000000 0.000000 
-0.183668 0.915775 0.637692 0.000000 0.000000 0.000000 
-1.459240 0.788484 0.152375 0.000000 0.000000 0.000000 
0.557064 1.418510 -0.294919 0.000000 0.000000 0.000000 
-0.821043 1.185840 1.111410 0.000000 0.000000 0.000000 
0.234303 0.789173 0.714537 0.000000 0.000000 0.000000 
-1.371960 1.039130 0.612596 0.000000 0.000000 0.000000 
0.710331 0.791802 -0.021003 0.000000 0.000000 0.000000 
-0.644909 1.131100 -1.018410 0.000000 0.000000 0.000000 
0.315860 1.016620 -0.304806 0.000000 0.000000 0.000000 
0.180342 1.390160 0.097540 0.000000 0.000000 0.000000 
-1.581360 1.398170 0.296854 0.000000 0.000000 0.000000 
-0.749656 1.429980 1.114250 0.000000 0.000000 0.000000 
-1.083560 1.028650 -0.262225 0.000000 0.000000 0.000000 
-1.561760 1.130260 0.183738 0.000000 0.000000 0.000000 
-0.648252 0.995678 -1.119470 0.000000 0.000000 0.000000 
-0.948192 0.787949 0.734643 0.000000 0.000000 0.000000 
0.301589 1.275160 -0.011384 0.000000 0.000000 0.000000 
-0.945883 1.172300 0.719978 0.000000 0.000000 0.000000 
-0.282672 1.018520 -0.905932 0.000000 0.000000 0.000000 
-0.067606 1.295710 -1.028700 0.000000 0.000000 0.000000 
-1.396020 1.031580 -0.242446 0.000000 0.000000 0.000000 
-0.646087 1.390760 0.801837 0.000000 0.000000 0.000000 
-0.308953 0.913145 0.718330 0.000000 0.000000 0.000000 
-1.456670 0.786978 0.141630 0.000000 0.000000 0.000000 
-0.362790 1.158040 -0.935001 0.000000 0.000000 0.000000 
-0.662502 1.174290 1.016720 0.000000 0.000000 0.000000 
0.403799 1.092310 0.208043 0.000000 0.000000 0.000000 
-1.128390 1.398750 -0.126296 0.000000 0.000000 0.000000 
-0.008370 1.376850 -1.144400 0.000000 0.000000 0.000000 
-0.010557 1.407600 -0.844234 0.000000 0.000000 0.000000 
-1.180330 0.785576 0.743351 0.000000 0.000000 0.000000 
-0.093269 1.034230 0.687545 0.000000 0.000000 0.000000 
-1.190760 0.787304 -0.532932 0.000000 0.000000 0.000000 
-1.546490 1.260420 0.210156 0.000000 0.000000 0.000000 
-0.103179 1.024120 0.974002 0.000000 0.000000 0.000000 
-0.406354 0.996849 -1.158990 0.000000 0.000000 0.000000 
-0.402630 1.028440 -0.271144 0.000000 0.000000 0.000000 
-1.078860 1.449230 0.149766 0.000000 0.000000 0.000000 
-0.969613 0.786093 0.166373 0.000000 0.000000 0.000000 
-0.077067 1.330140 0.124104 0.000000 0.000000 0.000000 
-0.430932 0.784908 0.591422 0.000000 0.000000 0.000000 
-0.478697 1.358030 0.843890 0.000000 0.000000 0.000000 
-1.466000 1.291180 -0.543960 0.000000 0.000000 0.000000 
-0.588097 1.025070 1.012020 0.000000 0.000000 0.000000 
-1.206940 0.912054 -0.126033 0.000000 0.000000 0.000000 
-1.061600 0.788936 -0.468736 0.000000 0.000000 0.000000 
-0.783513 0.925133 1.036840 0.000000 0.000000 0.000000 
-0.220158 0.912472 0.969718 0.000000 0.000000 0.000000 
-0.166953 1.032690 -1.020470 0.000000 0.000000 0.000000 
-0.201484 1.361650 -0.417874 0.000000 0.000000 0.000000 
-0.947103 1.123680 0.761547 0.000000 0.000000 0.000000 
0.558620 0.788010 -0.254325 0.000000 0.000000 0.000000 
0.533476 1.207230 0.775140 0.000000 0.000000 0.000000 
-0.188131 1.129670 -0.905882 0.000000 0.000000 0.000000 
0.665238 1.440290 0.384838 0.000000 0.000000 0.000000 
-1.371210 1.039660 0.612533 0.000000 0.000000 0.000000 
-0.874628 1.146730 -0.065156 0.000000 0.000000 0.000000 
-0.652214 0.790763 -0.924378 0.000000 0.000000 0.000000 
-0.900706 1.406890 1.059540 0.000000 0.000000 0.000000 
-1.457290 0.904329 0.228756 0.000000 0.000000 0.000000 
0.640532 1.425980 0.020525 0.000000 0.000000 0.000000 
0.273029 1.457970 -0.613040 0.000000 0.000000 0.000000 
-1.023880 1.279810 0.836559 0.000000 0.000000 0.000000 
-1.370120 1.038150 0.337707 0.000000 0.000000 0.000000 
0.444830 1.068200 -0.633865 0.000000 0.000000 0.000000 
-0.848797 0.907157 0.678981 0.000000 0.000000 0.000000 
-0.539308 1.034140 -1.023740 0.000000 0.000000 0.000000 
-1.248940 0.784098 -0.398561 0.000000 0.000000 0.000000 
-0.961248 0.789005 0.460844 0.000000 0.000000 0.000000 
-0.772467 1.022150 1.096280 0.000000 0.000000 0.000000 
-0.620828 1.162620 -1.169600 0.000000 0.000000 0.000000 
-1.463110 0.961646 0.357589 0.000000 0.000000 0.000000 
0.151669 0.784509 -0.955279 0.000000 0.000000 0.000000 
-0.716916 1.023460 0.690551 0.000000 0.000000 0.000000 
-0.924823 0.789340 0.275960 0.000000 0.000000 0.000000 
-0.855565 1.370380 -1.100750 0.000000 0.000000 0.000000 
-0.002527 0.907999 0.295026 0.000000 0.000000 0.000000 
-0.969884 0.922480 -0.769306 0.000000 0.000000 0.000000 
-0.685039 0.930814 1.070950 0.000000 0.000000 0.000000 
-1.282480 1.150360 0.544196 0.000000 0.000000 0.000000 
-1.454010 1.011820 -0.374571 0.000000 0.000000 0.000000 
-0.256104 1.399830 -1.094560 0.000000 0.000000 0.000000 
-0.959427 0.903860 0.562056 0.000000 0.000000 0.000000 
-0.871991 1.424140 0.833048 0.000000 0.000000 0.000000 
-1.424090 1.234860 -0.119582 0.000000 0.000000 0.000000 
-1.197620 0.906555 0.520816 0.000000 0.000000 0.000000 
-0.294058 1.240290 -0.154948 0.000000 0.000000 0.000000 
0.179705 1.175490 0.929839 0.000000 0.000000 0.000000 
-0.033653 1.420120 -0.240237 0.000000 0.000000 0.000000 
-1.330990 0.902868 -0.215957 0.000000 0.000000 0.000000 
-1.532200 1.444510 0.294366 0.000000 0.000000 0.000000 
-1.175390 0.788489 -0.357826 0.000000 0.000000 0.000000 
-0.254301 0.978724 -1.136670 0.000000 0.000000 0.000000 
-0.823709 1.165570 -0.804352 0.000000 0.000000 0.000000 
-0.487774 0.940961 -1.130060 0.000000 0.000000 0.000000 
0.233993 0.918363 -0.655788 0.000000 0.000000 0.000000 
-0.714886 1.058640 0.989495 0.000000 0.000000 0.000000 
-1.356890 1.015420 0.621660 0.000000 0.000000 0.000000 
0.188709 1.519510 -0.276591 0.000000 0.000000 0.000000 
-0.392383 0.996672 -1.156940 0.000000 0.000000 0.000000 
-1.476110 0.894713 0.097934 0.000000 0.000000 0.000000 
-0.888742 1.216430 -0.942202 0.000000 0.000000 0.000000 
0.057572 1.295880 -0.415298 0.000000 0.000000 0.000000 
-0.831930 0.916894 0.516983 0.000000 0.000000 0.000000 
0.269494 1.047900 -0.101650 0.000000 0.000000 0.000000 
0.039016 0.934055 0.876714 0.000000 0.000000 0.000000 
-1.428270 1.003800 0.477668 0.000000 0.000000 0.000000 
-0.933612 0.915401 0.389661 0.000000 0.000000 0.000000 
-1.332440 0.922319 -0.348191 0.000000 0.000000 0.000000 
-0.879897 1.038180 0.919383 0.000000 0.000000 0.000000 
-0.279720 1.153990 -1.012560 0.000000 0.000000 0.000000 
-0.315583 1.370480 1.033300 0.000000 0.000000 0.000000 
-0.836219 0.787570 -0.990714 0.000000 0.000000 0.000000 
-0.165126 0.790056 -0.130463 0.000000 0.000000 0.000000 
-0.940963 1.209860 -1.063930 0.000000 0.000000 0.000000 
-0.143863 1.153060 1.049250 0.000000 0.000000 0.000000 
0.283653 1.380370 -0.618057 0.000000 0.000000 0.000000 
-0.266909 0.790461 -1.108400 0.000000 0.000000 0.000000 
-1.222220 1.027520 0.278825 0.000000 0.000000 0.000000 
-0.265622 0.924243 -0.730090 0.000000 0.000000 0.000000 
-1.185270 1.245600 0.454670 0.000000 0.000000 0.000000 
-0.775419 0.913898 -0.268253 0.000000 0.000000 0.000000 
-1.126480 1.034960 -0.085878 0.000000 0.000000 0.000000 
-1.094240 1.289200 -0.727542 0.000000 0.000000 0.000000 
-0.047665 0.787579 -0.862894 0.000000 0.000000 0.000000 
-0.133751 1.194410 -1.055520 0.000000 0.000000 0.000000 
-0.824317 0.784684 0.817072 0.000000 0.000000 0.000000 
-1.344490 1.027460 -0.136773 0.000000 0.000000 0.000000 
-0.313385 1.258370 0.915422 0.000000 0.000000 0.000000 
-0.655871 1.422170 1.111950 0.000000 0.000000 0.000000 
-1.478930 0.959603 0.252952 0.000000 0.000000 0.000000 
-0.938499 1.258560 -0.307939 0.000000 0.000000 0.000000 
-1.194070 1.206350 0.854992 0.000000 0.000000 0.000000 
-1.337110 1.039110 -0.307147 0.000000 0.000000 0.000000 
0.512846 1.439530 0.096342 0.000000 0.000000 0.000000 
-0.773712 1.278900 0.398932 0.000000 0.000000 0.000000 
-0.045900 1.155910 0.209678 0.000000 0.000000 0.000000 
-0.634017 1.411990 -0.268284 0.000000 0.000000 0.000000 
-1.069960 0.785315 0.839014 0.000000 0.000000 0.000000 
0.466373 0.791100 0.222919 0.000000 0.000000 0.000000 
-1.109660 1.030580 0.069767 0.000000 0.000000 0.000000 
-1.550360 1.033260 0.138678 0.000000 0.000000 0.000000 
-1.155720 0.890664 0.788136 0.000000 0.000000 0.000000 
0.302751 0.792128 -0.446561 0.000000 0.000000 0.000000 
-0.458706 0.923748 1.113670 0.000000 0.000000 0.000000 
-0.708922 1.034170 -1.122120 0.000000 0.000000 0.000000 
0.354130 1.437980 0.273298 0.000000 0.000000 0.000000 
0.112728 1.300190 0.050064 0.000000 0.000000 0.000000 
0.330504 0.917830 -0.493641 0.000000 0.000000 0.000000 
-1.440370 1.410370 -0.230755 0.000000 0.000000 0.000000 
-1.313470 0.788171 -0.144931 0.000000 0.000000 0.000000 
-1.160100 1.381540 0.348739 0.000000 0.000000 0.000000 
-0.736571 1.048970 0.947091 0.000000 0.000000 0.000000 
-0.776375 1.402570 0.672289 0.000000 0.000000 0.000000 
-1.379990 1.402380 0.104552 0.000000 0.000000 0.000000 
-0.307499 1.127860 -0.524398 0.000000 0.000000 0.000000 
-1.095760 1.035310 0.220541 0.000000 0.000000 0.000000 
0.478953 0.920965 0.734178 0.000000 0.000000 0.000000 
-0.407469 0.904462 -0.404322 0.000000 0.000000 0.000000 
0.722415 0.790403 0.159388 0.000000 0.000000 0.000000 
0.813979 1.090500 0.125929 0.000000 0.000000 0.000000 
-0.980600 1.035260 0.011324 0.000000 0.000000 0.000000 
0.053537 1.010150 -1.078000 0.000000 0.000000 0.000000 
-0.676108 1.036000 -0.130429 0.000000 0.000000 0.000000 
-1.138650 1.272300 0.730896 0.000000 0.000000 0.000000 
-1.166880 0.929726 0.323871 0.000000 0.000000 0.000000 
-0.074777 0.922214 -0.969312 0.000000 0.000000 0.000000 
-1.214540 0.785101 -0.179870 0.000000 0.000000 0.000000 
-1.156860 0.912619 0.782386 0.000000 0.000000 0.000000 
0.507936 1.171670 -0.777034 0.000000 0.000000 0.000000 
0.233869 1.051070 0.670959 0.000000 0.000000 0.000000 
-0.407676 0.908266 -0.977974 0.000000 0.000000 0.000000 
-1.150310 1.133680 0.525992 0.000000 0.000000 0.000000 
-1.001170 1.027880 0.827588 0.000000 0.000000 0.000000 
-1.285820 0.784195 -0.040719 0.000000 0.000000 0.000000 
0.185809 1.020830 -1.013290 0.000000 0.000000 0.000000 
-1.178440 0.909433 0.175536 0.000000 0.000000 0.000000 
-1.520570 1.000580 -0.039383 0.000000 0.000000 0.000000 
-1.394900 1.164050 -0.331953 0.000000 0.000000 0.000000 
-1.170190 0.788391 -0.353046 0.000000 0.000000 0.000000 
-1.242570 0.965770 0.732985 0.000000 0.000000 0.000000 
-0.684518 0.784120 0.649889 0.000000 0.000000 0.000000 
-0.818211 1.303830 0.134206 0.000000 0.000000 0.000000 
-1.456670 0.896545 0.209973 0.000000 0.000000 0.000000 
-1.248730 1.256900 0.304148 0.000000 0.000000 0.000000 
-1.141460 0.786528 0.377861 0.000000 0.000000 0.000000 
-0.637293 1.312640 -1.160510 0.000000 0.000000 0.000000 
-0.726057 1.029750 -0.789272 0.000000 0.000000 0.000000 
0.742091 1.369700 -0.397056 0.000000 0.000000 0.000000 
-0.527653 1.290720 -0.749609 0.000000 0.000000 0.000000 
-0.016526 0.788259 -1.048090 0.000000 0.000000 0.000000 
-0.935485 0.789971 -0.361363 0.000000 0.000000 0.000000 
0.190697 0.785561 0.737241 0.000000 0.000000 0.000000 
-0.128430 0.909867 0.079340 0.000000 0.000000 0.000000 
-1.091390 1.145210 0.793204 0.000000 0.000000 0.000000 
-1.118120 0.790541 0.050069 0.000000 0.000000 0.000000 
-0.962409 0.789028 -0.748127 0.000000 0.000000 0.000000 
-0.673182 1.392010 -1.136180 0.000000 0.000000 0.000000 
-0.260532 0.919897 1.119360 0.000000 0.000000 0.000000 
-1.036990 0.784741 -0.730431 0.000000 0.000000 0.000000 
-0.036470 1.183750 -0.871604 0.000000 0.000000 0.000000 
-0.784729 0.792568 1.009340 0.000000 0.000000 0.000000 
-0.468915 1.387070 1.154210 0.000000 0.000000 0.000000 
-1.366420 0.783821 0.046186 0.000000 0.000000 0.000000 
-0.678697 1.068090 1.142710 0.000000 0.000000 0.000000 
-0.384992 1.038730 0.453962 0.000000 0.000000 0.000000 
-1.268240 0.893796 0.418453 0.000000 0.000000 0.000000 
-1.429610 1.292950 -0.120319 0.000000 0.000000 0.000000 
-0.805022 1.019840 -1.091450 0.000000 0.000000 0.000000 
-0.397902 1.009520 1.017230 0.000000 0.000000 0.000000 
-1.076890 1.406330 -0.561511 0.000000 0.000000 0.000000 
-0.686800 0.789012 -0.119704 0.000000 0.000000 0.000000 
-0.366862 1.424290 -0.666499 0.000000 0.000000 0.000000 
0.113715 0.906328 -0.700883 0.000000 0.000000 0.000000 
-0.708040 1.027580 -0.477861 0.000000 0.000000 0.000000 
-1.131160 0.902652 -0.811957 0.000000 0.000000 0.000000 
-0.160234 0.785559 0.383096 0.000000 0.000000 0.000000 
0.262534 1.405000 0.712363 0.000000 0.000000 0.000000 
-0.521155 1.485280 -0.045602 0.000000 0.000000 0.000000 
-1.395910 1.068200 -0.584833 0.000000 0.000000 0.000000 
-1.307520 1.155840 -0.754789 0.000000 0.000000 0.000000 
-0.949651 1.142050 -0.891269 0.000000 0.000000 0.000000 
-0.311503 0.914708 0.717006 0.000000 0.000000 0.000000 
-1.111620 1.026880 0.709723 0.000000 0.000000 0.000000 
-1.093300 1.223940 0.953727 0.000000 0.000000 0.000000 
-0.498589 0.787069 0.714810 0.000000 0.000000 0.000000 
-1.235600 1.144200 -0.599736 0.000000 0.000000 0.000000 
-0.897486 1.395510 -0.198321 0.000000 0.000000 0.000000 
-1.285630 1.229420 0.776653 0.000000 0.000000 0.000000 
-1.415050 1.402620 0.032944 0.000000 0.000000 0.000000 
-0.723739 1.448930 0.998120 0.000000 0.000000 0.000000 
-1.361550 0.787587 0.464426 0.000000 0.000000 0.000000 
-0.617017 0.786948 0.931463 0.000000 0.000000 0.000000 
-1.268100 0.884809 0.657480 0.000000 0.000000 0.000000 
-0.223762 1.314890 0.429529 0.000000 0.000000 0.000000 
-0.939441 1.416680 0.304844 0.000000 0.000000 0.000000 
0.663118 1.003760 0.520263 0.000000 0.000000 0.000000 
-0.335282 0.787199 1.084730 0.000000 0.000000 0.000000 
-0.734921 0.907129 0.769042 0.000000 0.000000 0.000000 
0.082112 1.409590 -1.063780 0.000000 0.000000 0.000000 
-1.053750 1.030640 0.372237 0.000000 0.000000 0.000000 
-0.676363 0.787170 0.176355 0.000000 0.000000 0.000000 
-1.569670 1.377910 -0.017845 0.000000 0.000000 0.000000 
-1.465350 0.904588 -0.139394 0.000000 0.000000 0.000000 
-0.461957 0.786322 1.081500 0.000000 0.000000 0.000000 
-1.387230 1.147360 0.371674 0.000000 0.000000 0.000000 
-1.040000 0.914141 -0.359759 0.000000 0.000000 0.000000 
-0.596765 1.193630 1.160670 0.000000 0.000000 0.000000 
-0.290307 1.025420 0.867229 0.000000 0.000000 0.000000 
-0.155683 0.787254 0.733860 0.000000 0.000000 0.000000 
0.322566 1.033520 -0.396045 0.000000 0.000000 0.000000 
-0.309420 1.111770 -1.176020 0.000000 0.000000 0.000000 
-0.659304 0.787568 0.812602 0.000000 0.000000 0.000000 
-0.316492 1.028420 0.893839 0.000000 0.000000 0.000000 
-1.143590 0.994120 0.860120 0.000000 0.000000 0.000000 
-1.010120 1.027330 -0.424158 0.000000 0.000000 0.000000 
-0.301231 1.006720 -0.981037 0.000000 0.000000 0.000000 
-1.500300 1.109580 0.362045 0.000000 0.000000 0.000000 
-0.577267 1.273310 1.052550 0.000000 0.000000 0.000000 
-0.978264 0.790520 0.033020 0.000000 0.000000 0.000000 
-1.124920 1.146520 -0.172380 0.000000 0.000000 0.000000 
-1.550810 1.028260 0.119063 0.000000 0.000000 0.000000 
-1.173940 1.231850 0.873351 0.000000 0.000000 0.000000 
-1.484460 1.240730 0.437144 0.000000 0.000000 0.000000 
-1.129700 0.900149 -0.812066 0.000000 0.000000 0.000000 
-1.253290 0.786256 0.631188 0.000000 0.000000 0.000000 
-0.878339 0.788056 -0.822282 0.000000 0.000000 0.000000 
-1.103940 1.148450 0.942191 0.000000 0.000000 0.000000 
-0.453434 1.290840 -0.900793 0.000000 0.000000 0.000000 
-0.884735 0.918571 0.852635 0.000000 0.000000 0.000000 
-1.217290 1.022030 0.282710 0.000000 0.000000 0.000000 
-0.350056 1.028450 1.167540 0.000000 0.000000 0.000000 
-1.394730 1.018420 0.201633 0.000000 0.000000 0.000000 
-0.625277 0.789531 -0.368506 0.000000 0.000000 0.000000 
-1.245360 1.258120 0.305333 0.000000 0.000000 0.000000 
0.411113 0.786305 0.556187 0.000000 0.000000 0.000000 
-1.304000 1.378610 0.388200 0.000000 0.000000 0.000000 
-0.597434 0.786384 0.774258 0.000000 0.000000 0.000000 
-1.054550 0.908968 -0.032498 0.000000 0.000000 0.000000 
0.180038 1.343970 -0.526335 0.000000 0.000000 0.000000 
-0.925358 0.781926 0.822375 0.000000 0.000000 0.000000 
-1.098140 0.784556 -0.377816 0.000000 0.000000 0.000000 
-1.061150 0.790366 0.198746 0.000000 0.000000 0.000000 
-0.793993 0.785596 0.860877 0.000000 0.000000 0.000000 
-1.563050 1.104670 0.012676 0.000000 0.000000 0.000000 
0.029996 1.175450 1.138440 0.000000 0.000000 0.000000 
-0.016481 1.144050 0.679357 0.000000 0.000000 0.000000 
-0.934147 1.146230 0.561697 0.000000 0.000000 0.000000 
-0.681594 0.783566 0.803755 0.000000 0.000000 0.000000 
-0.172360 0.784322 0.319585 0.000000 0.000000 0.000000 
0.380250 0.787144 0.066918 0.000000 0.000000 0.000000 
0.423259 0.904960 -0.778097 0.000000 0.000000 0.000000 
-0.768476 0.783439 -1.016120 0.000000 0.000000 0.000000 
-1.567090 1.350580 0.112963 0.000000 0.000000 0.000000 
-1.128110 0.917808 -0.447988 0.000000 0.000000 0.000000 
-0.607608 0.784803 -1.062910 0.000000 0.000000 0.000000 
-0.245339 1.260940 0.795777 0.000000 0.000000 0.000000 
-0.248955 0.985149 -1.144230 0.000000 0.000000 0.000000 
-1.201140 1.059610 0.866345 0.000000 0.000000 0.000000 
0.436632 1.164850 -0.881740 0.000000 0.000000 0.000000 
0.407761 1.407100 0.317241 0.000000 0.000000 0.000000 
-1.026720 0.789144 0.358483 0.000000 0.000000 0.000000 
-1.231040 0.996589 0.577905 0.000000 0.000000 0.000000 
-0.212424 1.191730 -0.094726 0.000000 0.000000 0.000000 
0.169006 1.292570 0.896106 0.000000 0.000000 0.000000 
-0.675917 1.412690 -0.462305 0.000000 0.000000 0.000000 
-1.075750 1.167300 -0.638489 0.000000 0.000000 0.000000 
-1.264650 1.034790 -0.027258 0.000000 0.000000 0.000000 
-1.033610 1.273170 -0.991694 0.000000 0.000000 0.000000 
-0.409661 0.787878 -0.324758 0.000000 0.000000 0.000000 
0.093561 1.283810 -0.838102 0.000000 0.000000 0.000000 
-0.819779 1.177090 0.992829 0.000000 0.000000 0.000000 
-0.042091 1.196480 -1.168710 0.000000 0.000000 0.000000 
-0.162562 1.389490 0.615068 0.000000 0.000000 0.000000 
-0.252993 0.786286 -0.663456 0.000000 0.000000 0.000000 
-1.124770 1.031010 -0.087646 0.000000 0.000000 0.000000 
-0.513869 1.400510 -1.173760 0.000000 0.000000 0.000000 
-1.347090 0.786534 -0.134589 0.000000 0.000000 0.000000 
-0.658460 1.296690 0.661557 0.000000 0.000000 0.000000 
-1.194270 1.149580 0.666122 0.000000 0.000000 0.000000 
0.685441 0.789273 0.284173 0.000000 0.000000 0.000000 
-1.152080 0.903672 0.332116 0.000000 0.000000 0.000000 
-0.883542 1.051740 1.067790 0.000000 0.000000 0.000000 
-0.012260 1.437230 0.373175 0.000000 0.000000 0.000000 
-0.188265 1.258750 -0.908426 0.000000 0.000000 0.000000 
-0.645633 0.881359 1.081150 0.000000 0.000000 0.000000 
0.324395 1.017020 -0.714934 0.000000 0.000000 0.000000 
-0.232790 0.787871 1.089170 0.000000 0.000000 0.000000 
0.590466 1.365950 0.744442 0.000000 0.000000 0.000000 
-0.832110 1.409590 -0.845317 0.000000 0.000000 0.000000 
0.453509 1.432060 -0.239664 0.000000 0.000000 0.000000 
-0.557128 1.266250 -0.030473 0.000000 0.000000 0.000000 
-0.327059 1.028050 0.457049 0.000000 0.000000 0.000000 
0.204288 0.789217 -0.299101 0.000000 0.000000 0.000000 
0.657458 1.038390 -0.005565 0.000000 0.000000 0.000000 
-1.345920 1.172850 -0.703230 0.000000 0.000000 0.000000 
-1.430960 1.274240 0.033356 0.000000 0.000000 0.000000 
-1.172060 1.147170 0.020928 0.000000 0.000000 0.000000 
0.170492 1.446200 0.626323 0.000000 0.000000 0.000000 
-0.192877 0.916924 0.838173 0.000000 0.000000 0.000000 
-1.445100 0.786935 -0.211656 0.000000 0.000000 0.000000 
-1.112330 1.281320 -0.565628 0.000000 0.000000 0.000000 
-0.944444 0.791210 0.002340 0.000000 0.000000 0.000000 
-0.955514 1.033450 0.020493 0.000000 0.000000 0.000000 
-1.077330 0.790181 0.225594 0.000000 0.000000 0.000000 
-0.629105 0.785615 -0.922418 0.000000 0.000000 0.000000 
-0.875895 1.269040 -0.478375 0.000000 0.000000 0.000000 
-1.302020 1.017810 -0.347218 0.000000 0.000000 0.000000 
-0.425840 0.789464 -0.210663 0.000000 0.000000 0.000000 
-0.684914 0.903328 0.950816 0.000000 0.000000 0.000000 
-0.976340 1.089850 1.033750 0.000000 0.000000 0.000000 
-0.493657 0.784433 0.459549 0.000000 0.000000 0.000000 
-0.119115 0.902185 -0.465413 0.000000 0.000000 0.000000 
-1.484210 1.383980 -0.419742 0.000000 0.000000 0.000000 
-0.993614 1.268590 -0.152178 0.000000 0.000000 0.000000 
-1.262590 1.273810 -0.283271 0.000000 0.000000 0.000000 
-1.254270 0.896867 -0.452320 0.000000 0.000000 0.000000 
-0.409111 0.910827 -0.985818 0.000000 0.000000 0.000000 
-1.042460 0.785390 -0.863668 0.000000 0.000000 0.000000 
-0.982875 1.147010 1.032560 0.000000 0.000000 0.000000 
0.565069 0.786906 -0.553632 0.000000 0.000000 0.000000 
-0.932059 1.268820 -0.308566 0.000000 0.000000 0.000000 
-0.767035 1.273230 1.132550 0.000000 0.000000 0.000000 
-0.490776 1.141020 0.359843 0.000000 0.000000 0.000000 
0.595815 1.392140 -0.052878 0.000000 0.000000 0.000000 
-0.626343 1.264870 -0.629826 0.000000 0.000000 0.000000 
-0.411333 0.791750 0.746473 0.000000 0.000000 0.000000 
-1.515080 1.278690 0.333684 0.000000 0.000000 0.000000 
-0.911857 0.914248 -0.081850 0.000000 0.000000 0.000000 
0.414938 0.790445 0.752984 0.000000 0.000000 0.000000 
0.197289 1.181910 0.072409 0.000000 0.000000 0.000000 
-1.479940 0.788273 -0.092880 0.000000 0.000000 0.000000 
-0.965868 1.032430 0.016011 0.000000 0.000000 0.000000 
-0.934736 0.908952 0.382123 0.000000 0.000000 0.000000 
-0.410365 1.386670 0.991124 0.000000 0.000000 0.000000 
-1.293430 0.787496 0.339458 0.000000 0.000000 0.000000 
-1.191940 1.126040 0.674828 0.000000 0.000000 0.000000 
-0.915491 0.788109 -0.593779 0.000000 0.000000 0.000000 
0.107253 0.787636 0.697413 0.000000 0.000000 0.000000 
-0.124463 0.793321 -0.942160 0.000000 0.000000 0.000000 
-1.561890 1.404420 -0.110958 0.000000 0.000000 0.000000 
-1.201590 0.785017 -0.012422 0.000000 0.000000 0.000000 
-1.315190 0.910573 0.264405 0.000000 0.000000 0.000000 
-0.858906 0.785683 -0.461421 0.000000 0.000000 0.000000 
-0.387008 0.783993 0.955426 0.000000 0.000000 0.000000 
-1.516180 1.203380 0.340888 0.000000 0.000000 0.000000 
0.379511 1.387990 0.613229 0.000000 0.000000 0.000000 
-0.854485 1.392800 -0.929735 0.000000 0.000000 0.000000 
-1.014510 1.003860 0.990943 0.000000 0.000000 0.000000 
-1.446810 1.131100 0.503605 0.000000 0.000000 0.000000 
-0.722543 1.040820 -1.118620 0.000000 0.000000 0.000000 
-1.081590 1.033540 -0.549365 0.000000 0.000000 0.000000 
0.696797 1.151360 0.116309 0.000000 0.000000 0.000000 
0.082481 1.326220 -0.713513 0.000000 0.000000 0.000000 
0.009766 1.243740 0.716773 0.000000 0.000000 0.000000 
-1.118670 1.397950 -0.574025 0.000000 0.000000 0.000000 
-0.605623 1.272920 -0.884797 0.000000 0.000000 0.000000 
-0.120429 1.177550 -1.039330 0.000000 0.000000 0.000000 
0.065302 0.917110 -1.017270 0.000000 0.000000 0.000000 
0.268381 0.789774 0.171382 0.000000 0.000000 0.000000 
-0.497223 1.053460 -1.174620 0.000000 0.000000 0.000000 
0.348049 0.908294 0.147829 0.000000 0.000000 0.000000 
-0.320530 1.161130 1.187800 0.000000 0.000000 0.000000 
0.014435 0.914697 1.043190 0.000000 0.000000 0.000000 
-0.877850 1.300710 0.936730 0.000000 0.000000 0.000000 
-1.201010 1.144850 -0.303378 0.000000 0.000000 0.000000 
-1.089890 1.378330 -0.969012 0.000000 0.000000 0.000000 
0.141003 1.048780 -1.053050 0.000000 0.000000 0.000000 
-0.605171 0.878084 1.095820 0.000000 0.000000 0.000000 
-1.577770 1.268700 -0.065581 0.000000 0.000000 0.000000 
-0.238708 1.166330 -0.674460 0.000000 0.000000 0.000000 
-0.969453 1.029770 0.659520 0.000000 0.000000 0.000000 
-1.398650 1.137520 -0.215000 0.000000 0.000000 0.000000 
-1.123110 0.787272 0.258370 0.000000 0.000000 0.000000 
-1.347410 0.881804 0.579342 0.000000 0.000000 0.000000 
-1.238130 1.393100 -0.311377 0.000000 0.000000 0.000000 
-0.892325 0.786512 0.439182 0.000000 0.000000 0.000000 
-1.292570 0.900057 -0.368471 0.000000 0.000000 0.000000 
0.211242 1.217170 -0.780116 0.000000 0.000000 0.000000 
-0.728949 0.787642 -0.272094 0.000000 0.000000 0.000000 
-0.854029 1.019470 0.764737 0.000000 0.000000 0.000000 
-1.340300 0.783918 -0.491233 0.000000 0.000000 0.000000 
-0.238306 0.896280 -0.990404 0.000000 0.000000 0.000000 
-1.329420 0.906906 0.107629 0.000000 0.000000 0.000000 
-1.059380 1.150100 -0.346446 0.000000 0.000000 0.000000 
-1.388580 1.287410 0.311515 0.000000 0.000000 0.000000 
0.822615 1.294570 0.118390 0.000000 0.000000 0.000000 
-1.340320 0.788627 0.176722 0.000000 0.000000 0.000000 
-0.663066 1.172350 1.023130 0.000000 0.000000 0.000000 
-0.542482 1.034690 0.748465 0.000000 0.000000 0.000000 
-1.202000 0.787091 0.499173 0.000000 0.000000 0.000000 
-0.068159 0.787614 -0.546454 0.000000 0.000000 0.000000 
-1.445700 0.783921 -0.003384 0.000000 0.000000 0.000000 
0.081711 1.112380 -1.094520 0.000000 0.000000 0.000000 
-0.676784 0.783839 0.408344 0.000000 0.000000 0.000000 
-0.126888 1.437820 -0.450329 0.000000 0.000000 0.000000 
0.164701 1.043830 -0.718053 0.000000 0.000000 0.000000 
-0.214050 1.152240 0.911213 0.000000 0.000000 0.000000 
-0.101930 1.037120 0.988886 0.000000 0.000000 0.000000 
-0.709500 0.786422 -1.047230 0.000000 0.000000 0.000000 
0.422120 1.481500 0.030422 0.000000 0.000000 0.000000 
-1.558720 1.177260 0.111309 0.000000 0.000000 0.000000 
-0.562630 0.782735 0.934516 0.000000 0.000000 0.000000 
-0.455995 1.266490 0.934728 0.000000 0.000000 0.000000 
0.337138 0.859107 -0.857511 0.000000 0.000000 0.000000 
-1.022510 1.276970 0.834236 0.000000 0.000000 0.000000 
0.372955 1.271270 -0.748282 0.000000 0.000000 0.000000 
-0.774296 1.291180 0.341515 0.000000 0.000000 0.000000 
-1.351540 1.290090 0.675941 0.000000 0.000000 0.000000 
-0.693718 1.012800 -0.957338 0.000000 0.000000 0.000000 
-1.089100 0.781539 0.821325 0.000000 0.000000 0.000000 
0.793394 1.037330 -0.049390 0.000000 0.000000 0.000000 
0.820587 1.262250 0.026672 0.000000 0.000000 0.000000 
-1.487710 0.837473 0.036551 0.000000 0.000000 0.000000 
-1.312330 0.786958 -0.587095 0.000000 0.000000 0.000000 
0.063599 1.173210 -0.695284 0.000000 0.000000 0.000000 
-0.599242 0.783808 -1.064200 0.000000 0.000000 0.000000 
-1.364730 0.786639 -0.441259 0.000000 0.000000 0.000000 
0.377450 0.782815 -0.308434 0.000000 0.000000 0.000000 
-0.894309 0.787916 -0.549306 0.000000 0.000000 0.000000 
-1.352270 0.911273 -0.049025 0.000000 0.000000 0.000000 
-0.827327 0.786789 -0.335824 0.000000 0.000000 0.000000 
-0.538513 0.910426 0.390174 0.000000 0.000000 0.000000 
-0.200595 1.027070 -0.735523 0.000000 0.000000 0.000000 
-0.721603 0.787197 -0.796423 0.000000 0.000000 0.000000 
-0.589976 1.288830 1.034510 0.000000 0.000000 0.000000 
-1.304970 1.267980 0.158394 0.000000 0.000000 0.000000 
-1.050910 1.413810 0.469073 0.000000 0.000000 0.000000 
0.187022 1.148310 -0.938245 0.000000 0.000000 0.000000 
-0.818586 1.178000 0.998268 0.000000 0.000000 0.000000 
-0.286380 0.916812 0.419051 0.000000 0.000000 0.000000 
0.183453 1.164280 0.772639 0.000000 0.000000 0.000000 
-0.133060 0.914654 1.087440 0.000000 0.000000 0.000000 
-1.008810 0.787979 0.718673 0.000000 0.000000 0.000000 
-0.906402 0.911836 -0.084868 0.000000 0.000000 0.000000 
-1.038420 0.784156 -0.866505 0.000000 0.000000 0.000000 
-0.500392 1.161260 0.356585 0.000000 0.000000 0.000000 
-0.841000 0.781531 0.401866 0.000000 0.000000 0.000000 
-0.733498 0.787459 -0.782548 0.000000 0.000000 0.000000 
-0.662990 1.162810 -0.875747 0.000000 0.000000 0.000000 
-0.094974 0.785329 -0.941673 0.000000 0.000000 0.000000 
-1.400200 1.405580 -0.322208 0.000000 0.000000 0.000000 
-0.115545 0.790207 -0.794469 0.000000 0.000000 0.000000 
-0.261194 1.174430 1.175630 0.000000 0.000000 0.000000 
-0.096171 0.900446 -1.095220 0.000000 0.000000 0.000000 
-0.160106 1.146860 -0.149265 0.000000 0.000000 0.000000 
-1.060010 0.784490 0.442319 0.000000 0.000000 0.000000 
0.025793 0.784158 1.015340 0.000000 0.000000 0.000000 
-1.017420 1.264430 0.828393 0.000000 0.000000 0.000000 
-0.124191 1.126330 -0.371351 0.000000 0.000000 0.000000 
-0.701707 0.909991 0.762596 0.000000 0.000000 0.000000 
-0.729635 0.884119 -1.042850 0.000000 0.000000 0.000000 
-1.265630 1.027860 -0.021540 0.000000 0.000000 0.000000 
-0.482388 1.223910 1.186120 0.000000 0.000000 0.000000 
-0.955325 1.034380 0.162855 0.000000 0.000000 0.000000 
-0.942294 1.281670 -0.011768 0.000000 0.000000 0.000000 
-0.365787 0.924797 0.991489 0.000000 0.000000 0.000000 
-0.802557 1.129580 -0.972761 0.000000 0.000000 0.000000 
-0.546786 0.788034 -0.808009 0.000000 0.000000 0.000000 
-0.643427 1.298920 -1.035550 0.000000 0.000000 0.000000 
-1.238790 1.267100 0.303592 0.000000 0.000000 0.000000 
-1.126870 1.253490 -0.539878 0.000000 0.000000 0.000000 
-1.208160 1.280540 -0.651695 0.000000 0.000000 0.000000 
-0.737928 1.049780 0.950715 0.000000 0.000000 0.000000 
-1.045010 1.432810 -0.804938 0.000000 0.000000 0.000000 
-1.356500 0.984388 -0.616679 0.000000 0.000000 0.000000 
-1.081480 1.153840 0.793831 0.000000 0.000000 0.000000 
0.358968 1.436020 -0.210129 0.000000 0.000000 0.000000 
-0.162214 1.171710 1.027330 0.000000 0.000000 0.000000 
-0.188669 1.426640 0.848414 0.000000 0.000000 0.000000 
-1.150300 1.280780 0.079432 0.000000 0.000000 0.000000 
-0.693921 0.786378 0.895893 0.000000 0.000000 0.000000 
-0.795373 0.908947 0.882107 0.000000 0.000000 0.000000 
-0.970680 0.786675 0.597149 0.000000 0.000000 0.000000 
-1.117650 0.785934 0.548290 0.000000 0.000000 0.000000 
0.204918 0.939331 0.186316 0.000000 0.000000 0.000000 
-0.189498 1.226620 0.367278 0.000000 0.000000 0.000000 
-1.477610 1.114420 -0.470307 0.000000 0.000000 0.000000 
0.466536 0.786912 -0.062505 0.000000 0.000000 0.000000 
-0.347115 0.787737 1.080430 0.000000 0.000000 0.000000 
0.595717 1.423640 0.436841 0.000000 0.000000 0.000000 
-0.240875 0.789261 0.606460 0.000000 0.000000 0.000000 
0.007456 0.788102 0.775422 0.000000 0.000000 0.000000 
-0.020986 0.790478 0.383109 0.000000 0.000000 0.000000 
-0.414884 0.921472 0.492766 0.000000 0.000000 0.000000 
-1.401910 1.287980 -0.273925 0.000000 0.000000 0.000000 
-0.680622 1.068200 1.139660 0.000000 0.000000 0.000000 
-1.338750 0.865142 -0.594633 0.000000 0.000000 0.000000 
-0.131620 0.920122 1.087760 0.000000 0.000000 0.000000 
-0.970427 1.097700 1.036610 0.000000 0.000000 0.000000 
-0.669082 1.318350 0.213247 0.000000 0.000000 0.000000 
-0.429921 0.791051 -0.035658 0.000000 0.000000 0.000000 
-0.886157 0.922980 -0.644220 0.000000 0.000000 0.000000 
0.675853 0.894132 0.417183 0.000000 0.000000 0.000000 
0.045538 0.793205 -0.056127 0.000000 0.000000 0.000000 
-1.091620 0.914560 -0.169129 0.000000 0.000000 0.000000 
-1.048950 1.312280 0.982695 0.000000 0.000000 0.000000 
-0.281332 0.949902 1.138260 0.000000 0.000000 0.000000 
-1.473670 1.056370 0.407308 0.000000 0.000000 0.000000 
-1.518560 1.019220 0.232105 0.000000 0.000000 0.000000 
-1.166100 1.145240 0.010169 0.000000 0.000000 0.000000 
-0.326373 0.910732 -0.856110 0.000000 0.000000 0.000000 
-1.152560 1.278310 -0.903717 0.000000 0.000000 0.000000 
-1.078120 0.903025 0.455215 0.000000 0.000000 0.000000 
0.325371 0.788062 -0.444317 0.000000 0.000000 0.000000 
0.331012 0.787126 -0.381552 0.000000 0.000000 0.000000 
-0.527645 1.401610 1.133870 0.000000 0.000000 0.000000 
-0.924896 0.789468 0.950438 0.000000 0.000000 0.000000 
0.335352 0.791020 0.404013 0.000000 0.000000 0.000000 
-0.824475 0.786242 0.583953 0.000000 0.000000 0.000000 
-0.365018 0.902980 0.876013 0.000000 0.000000 0.000000 
0.062893 0.783208 0.834123 0.000000 0.000000 0.000000 
-0.971552 0.787317 0.303485 0.000000 0.000000 0.000000 
0.809270 1.267890 0.145587 0.000000 0.000000 0.000000 
-0.998196 1.123340 -1.019860 0.000000 0.000000 0.000000 
-1.159340 1.264980 -0.092202 0.000000 0.000000 0.000000 
