0.153712 0.639880 -0.587063 
0.235640 1.915748 -0.642541 
-0.329012 1.891823 -0.819857 
0.526147 1.186195 -0.087822 
0.475381 0.215090 -0.229820 
-0.842073 0.238356 0.250460 
0.231954 1.851719 -0.639691 
-0.755907 0.432477 -0.435539 
0.060906 0.444633 -0.580044 
0.412921 1.868508 -0.575976 
0.433211 0.421923 0.082240 
0.131726 1.226307 -0.647070 
-0.628924 0.307984 -0.206217 
-0.955648 1.332795 0.191551 
-0.812410 0.546469 -0.241575 
-0.871010 1.236158 0.230862 
0.206167 0.907711 -0.577599 
-0.742202 0.808005 -0.548346 
0.514931 0.957493 -0.010463 
-0.721273 1.461557 -0.623001 
-0.716830 2.052912 -0.632535 
0.400699 1.366154 -0.568243 
-0.527548 1.330090 0.643755 
-0.576636 1.583813 0.636178 
-0.031290 0.307984 -0.025606 
-0.102572 2.053044 -0.807748 
-0.968496 1.705929 0.272901 
0.598893 0.844884 -0.091317 
0.172270 1.965094 0.683529 
-0.441957 0.903696 -0.710967 
-0.240924 0.307984 0.092590 
0.509286 0.390648 -0.137388 
-0.819143 1.587453 -0.529244 
0.533282 0.680076 0.004900 
-0.734764 1.087392 0.453552 
0.152412 1.081938 -0.730127 
-0.407244 1.504030 0.706854 
-0.701130 0.793920 -0.597156 
-0.298112 0.307984 0.248918 
-0.854138 0.815894 0.421236 
-0.701890 1.592055 0.644085 
-0.752116 0.392776 0.429228 
-0.807910 1.986689 0.461567 
0.328364 1.632774 -0.645232 
-0.512195 0.798972 0.609047 
-0.685169 0.058680 -0.391473 
0.122487 1.510642 -0.762215 
0.540118 1.824659 -0.229887 
-0.278253 1.826769 0.757348 
-0.797280 1.531797 -0.550076 
-0.603363 0.589827 0.530831 
-0.267911 1.883634 -0.827917 
-0.310623 1.268788 0.713552 
-0.746780 1.288919 -0.461309 
0.190009 0.307984 0.428610 
0.185695 0.638313 -0.680202 
0.068595 1.180363 -0.768591 
0.209899 0.053538 -0.373745 
-0.681410 0.226325 -0.431127 
-0.627022 1.189417 0.568268 
0.241284 1.259426 -0.691400 
0.445690 0.798504 -0.469975 
0.308441 0.307984 -0.154330 
0.277137 0.307984 -0.004061 
0.549792 1.543127 -0.100279 
-0.821391 0.609008 -0.233294 
0.131969 1.151428 0.641055 
-0.192873 1.529042 0.742129 
0.199883 1.549054 0.726945 
-0.007115 0.502280 0.640166 
0.201178 1.412534 0.623227 
0.165854 0.307984 0.024612 
-0.135253 1.633005 0.824439 
-0.716489 0.317432 0.323826 
-0.475901 0.053522 -0.443837 
-0.369650 1.257744 0.700154 
-0.228427 0.638871 -0.774682 
-0.430132 1.261117 -0.776280 
0.471623 2.046779 -0.512392 
-0.755938 1.404540 -0.588714 
0.473373 0.826184 0.433588 
0.241961 1.998898 -0.645289 
-0.636009 0.462793 -0.459086 
-0.674247 0.488643 -0.580708 
0.525540 0.595623 0.298197 
0.464200 1.192498 0.482139 
-0.637446 1.387054 0.577634 
-0.006922 1.920624 0.747770 
0.457006 0.469259 -0.061608 
-0.596591 0.126315 0.550003 
0.166890 0.139070 -0.512962 
-0.690242 1.026591 -0.496504 
0.012406 0.461870 -0.609766 
-0.758918 0.142764 0.280764 
0.384381 0.591790 -0.518901 
0.511502 1.788734 0.299831 
-0.758953 0.053576 -0.111795 
-0.614190 0.468562 0.606792 
-0.749711 1.341717 -0.591552 
0.403004 0.650364 0.505262 
-0.571729 1.122944 -0.709241 
0.641951 1.784694 0.038631 
0.604981 1.682073 -0.238258 
-0.131771 1.415038 0.732286 
-0.805702 1.717762 0.433152 
0.281041 1.430977 -0.567194 
-0.644869 1.961214 -0.621441 
-0.284016 0.057921 -0.625106 
-0.651203 0.058993 0.431657 
0.537210 1.318224 0.069916 
-0.835649 1.950973 0.417165 
-0.051410 1.010074 0.693098 
0.476225 1.196969 -0.465684 
-0.294225 1.065420 -0.701683 
-0.587859 1.824443 0.648627 
-0.299496 0.475465 -0.641617 
0.527228 1.140021 -0.031369 
0.374959 2.042624 0.618104 
-0.489519 1.699716 -0.770231 
0.117349 0.245067 -0.632405 
-0.847087 1.538193 -0.491868 
-0.907067 1.567163 0.191709 
-0.113773 0.142005 0.615617 
0.488905 1.396708 -0.461594 
-0.884795 1.065902 -0.400223 
-0.568468 2.053045 0.698312 
-0.609427 1.365731 -0.699517 
0.341764 0.307984 -0.032382 
-0.824061 1.884025 -0.534940 
-0.338031 0.786455 0.772869 
0.489352 0.946032 0.422334 
0.574741 0.543848 0.098179 
-0.454983 0.387012 0.656618 
0.105104 0.307984 0.200022 
-0.379156 0.384938 0.593596 
-0.497180 0.307984 0.432448 
-0.553507 0.307984 -0.149337 
0.223705 1.037481 -0.576556 
-0.748375 0.628937 0.379746 
-0.152601 0.183956 -0.695536 
-0.008398 1.262320 -0.701472 
0.083997 0.333344 -0.559547 
-0.839276 0.351510 -0.271735 
-0.018691 0.312396 0.597360 
0.591091 0.878359 -0.032614 
0.094172 0.119587 0.637425 
-0.953309 1.074346 0.220094 
-0.671706 0.468720 0.428091 
-0.892582 0.424154 0.104511 
-0.035361 1.002654 -0.688953 
0.444910 0.771740 0.468143 
-0.850306 0.667499 0.406275 
0.063338 0.922766 0.653030 
-0.533491 1.727309 -0.671750 
-0.029091 1.845855 -0.816235 
0.626895 1.437556 -0.100071 
0.063469 0.431755 0.670672 
-1.005825 1.991316 -0.161267 
-0.464779 1.949988 0.785815 
-0.736844 0.761635 0.413404 
-0.412113 0.151436 -0.581406 
-0.792640 0.615555 -0.301892 
-0.479894 0.307984 -0.038186 
-0.984648 1.246591 -0.156866 
-0.749312 0.705816 0.388667 
-0.311685 0.307984 -0.092378 
0.055550 0.323652 0.571929 
-0.935024 1.421140 0.333930 
-0.568239 0.405947 -0.599964 
-0.674529 0.196047 0.426962 
-0.224909 0.053050 0.050269 
-0.606688 0.750959 0.544216 
-0.376972 1.558358 -0.719908 
-0.863192 1.726818 0.478035 
-0.587219 0.431505 -0.481311 
-0.300752 0.729087 -0.675806 
0.164769 1.828068 -0.676831 
0.607465 1.271774 0.176962 
0.450791 0.456330 -0.001948 
0.099197 0.790066 -0.733939 
-0.543464 1.656662 -0.745631 
-0.827683 1.821251 -0.528350 
-0.540240 0.307984 -0.509180 
-0.563220 1.956657 -0.743933 
-0.084628 1.087312 -0.704075 
-0.020845 1.782369 0.741334 
0.258751 0.363714 -0.435385 
-0.526584 2.002839 -0.762251 
-0.867811 1.174038 0.226365 
0.395274 0.656775 -0.515238 
-0.891439 1.433469 0.211203 
-0.723989 0.441295 -0.328252 
0.113841 2.050392 0.774981 
-0.199705 1.262345 -0.813655 
0.488777 1.961694 -0.373350 
-0.089382 1.705336 -0.748406 
0.485649 1.906800 0.490470 
0.438576 1.518836 -0.534478 
-0.871230 0.915081 0.143415 
0.600336 1.731605 0.258149 
-0.335577 1.450445 -0.806670 
-0.690803 0.307984 -0.215961 
-0.905574 0.450963 -0.111824 
-0.339195 1.371526 -0.803248 
0.261510 0.788182 -0.524153 
-0.470124 0.837228 -0.698560 
-0.062704 0.307984 0.498454 
-0.793525 0.676727 -0.310247 
0.208864 1.021345 -0.697868 
0.434408 0.482439 0.211573 
0.364848 1.707181 -0.617193 
-0.684316 1.895329 0.667293 
-0.851950 0.180858 -0.221455 
0.585148 0.824031 0.165830 
0.109614 1.829977 0.703051 
-0.006765 1.805316 -0.739664 
0.454140 0.727223 -0.449421 
-0.829300 1.226462 -0.496827 
-0.045492 1.854121 -0.751583 
-0.782494 1.782793 0.471713 
-0.456479 1.316235 0.766214 
0.272333 1.566700 -0.586577 
-0.418741 1.000501 -0.766617 
-0.514395 0.878933 -0.614429 
-0.136473 1.744977 -0.755681 
0.387345 0.553555 0.511005 
0.251524 1.456236 -0.693342 
-0.321341 0.053304 0.283607 
-0.861110 0.556324 -0.369320 
-0.187650 2.030783 -0.835529 
-0.601879 0.858125 -0.557456 
-0.403267 1.405223 -0.700895 
0.519343 0.427261 0.104884 
-0.579307 0.307984 -0.381870 
-0.701247 0.425977 0.454693 
0.465977 0.901384 0.452825 
-0.144346 0.620015 0.770544 
-0.175176 0.775279 -0.688641 
-0.224221 0.317139 -0.703681 
-0.816199 1.134053 -0.338462 
0.488671 1.565929 0.312954 
0.523206 1.693619 0.424616 
-0.467000 1.775893 0.705606 
0.047941 1.024220 -0.767087 
0.247873 1.225279 -0.575522 
-0.888741 1.630091 0.434765 
0.260081 1.309879 -0.667917 
-0.457894 1.448250 0.684769 
-0.581121 1.788661 0.730175 
-0.096953 0.307984 -0.504612 
-0.089465 1.988728 -0.767890 
-0.196656 0.367565 0.623095 
-0.831563 2.053023 -0.513875 
0.504770 1.970027 0.344596 
-0.750567 2.053044 0.563976 
-0.412449 0.053308 -0.222975 
0.441764 1.859565 0.544402 
-0.807452 0.809516 -0.305158 
-0.344408 1.590513 -0.809664 
-0.216795 1.138325 0.714081 
-0.074357 1.328062 -0.800503 
0.593487 1.729638 -0.277788 
-0.364596 0.791954 -0.667086 
-0.449808 1.002396 -0.710600 
-0.758800 1.018359 -0.414815 
0.022935 0.053308 -0.238549 
-0.995313 1.543103 0.157398 
-0.448152 0.544963 0.617590 
-0.007638 1.954198 -0.750304 
-0.928432 2.053044 -0.352893 
-0.732377 1.229605 -0.601733 
-0.034268 1.100870 0.791413 
-0.739798 0.975987 0.435006 
-0.472110 0.573774 -0.676892 
-0.075923 1.647330 0.818889 
0.473001 1.977364 -0.510415 
-0.171801 0.053560 0.566525 
0.275284 0.350705 0.534426 
0.079515 1.646613 0.782339 
-0.957244 1.759866 0.306839 
-0.886478 1.342334 0.420883 
-0.122722 0.914573 -0.777314 
-0.534091 1.186388 0.731976 
0.520208 1.029633 -0.007180 
-0.598706 1.596982 -0.623563 
-0.414766 0.307984 0.454731 
0.503827 1.401444 -0.245996 
-0.560279 0.242897 -0.558022 
-0.642003 0.053450 -0.053048 
0.578875 0.879648 -0.207882 
-0.445642 1.795646 0.788799 
-0.004507 0.375580 -0.596154 
0.102723 0.474393 0.688989 
0.124777 0.307984 -0.253582 
0.118986 0.453733 -0.557501 
-0.278861 1.709215 0.749210 
-0.953710 1.468795 -0.293100 
-0.508721 1.066714 -0.632746 
-0.358166 0.101775 -0.660267 
-0.546962 1.120396 0.616502 
-0.094300 0.343521 -0.700184 
-0.272660 1.778028 -0.825089 
-0.059931 0.053217 0.187844 
0.415619 0.710158 -0.497777 
0.583446 1.023342 0.223801 
-0.372535 0.053242 0.170439 
-0.113070 0.627877 0.720850 
-0.815011 0.580706 -0.446603 
-0.163405 0.377642 -0.623090 
-0.044429 0.512313 0.744654 
0.119734 1.021665 -0.636669 
-0.350722 1.582036 0.808193 
-0.870930 1.462401 0.275740 
-0.151986 1.299161 0.814275 
-0.652051 0.537323 -0.481818 
-0.951819 1.489522 0.300161 
0.563913 1.493044 -0.333940 
-0.635773 1.048924 -0.666533 
-0.692920 1.520586 -0.541843 
0.145071 0.614468 0.698852 
0.063348 0.307984 -0.251361 
-0.814879 0.928019 -0.309551 
-0.039391 0.307984 -0.396354 
-0.315481 1.534957 -0.812945 
0.508826 1.219524 -0.359784 
0.577905 0.722201 -0.036862 
0.514098 1.023288 -0.092992 
-0.139271 1.438519 0.818695 
0.113637 0.789900 -0.621057 
0.489069 1.809347 -0.482021 
-0.481269 0.346646 -0.641730 
0.143023 0.053567 -0.468701 
0.475233 0.719738 -0.392906 
-0.203806 1.868218 -0.831420 
-0.893253 1.212099 -0.142264 
-0.040919 0.307984 0.035411 
-0.652627 1.879555 -0.689574 
-0.217417 1.294370 0.814256 
-0.211047 0.053432 -0.439216 
-0.350213 0.062816 -0.617494 
0.532938 1.436368 -0.391538 
0.348876 0.704644 -0.568485 
-0.620522 1.872760 -0.631469 
0.536183 1.590227 -0.186104 
-0.274216 0.307984 -0.173939 
0.279193 1.490483 0.574055 
-0.889646 1.687637 -0.436202 
0.535918 1.495050 -0.387425 
-0.798630 0.078674 0.240708 
0.379914 0.758699 -0.389469 
0.173081 1.425370 -0.736419 
-0.641702 0.307984 0.164004 
0.032528 0.540342 -0.633193 
0.108744 1.142105 -0.752021 
-0.431516 0.417064 0.575427 
-0.272158 0.307984 0.461579 
-0.123399 1.168587 0.806755 
0.253540 1.373711 0.584260 
0.447235 1.661401 0.403177 
-0.000387 0.712719 0.759146 
-0.424683 0.310423 0.662923 
0.344278 0.438052 -0.484123 
0.495315 0.337755 -0.169961 
-0.386743 0.053214 0.102696 
-0.990886 1.348737 0.143038 
0.198063 0.053379 -0.046033 
0.424667 1.432480 -0.409406 
0.362335 1.427110 0.488654 
-1.008166 1.510542 -0.046189 
0.450784 1.244131 0.503877 
-0.227112 0.757880 0.686474 
0.026200 0.053255 0.156556 
-0.957846 1.435661 0.278790 
-0.893545 1.044346 -0.050185 
0.183231 0.053492 0.334929 
0.588753 1.262788 -0.245508 
-0.607819 1.769441 0.631832 
0.308424 1.653537 -0.564532 
0.447594 0.900634 0.290245 
-0.876178 2.052983 -0.453144 
-0.419376 0.307984 -0.062505 
-0.717442 1.133531 0.609175 
0.490710 0.877775 0.398907 
0.630732 1.454448 0.067409 
0.591771 1.334243 -0.244442 
-0.986583 1.046721 -0.076332 
0.525318 1.835194 -0.427927 
0.248340 2.053044 -0.676033 
-0.825797 0.158813 0.271965 
0.383879 1.433249 0.588413 
0.284058 1.720990 -0.590726 
0.218239 0.746083 0.663549 
-0.685962 0.053514 -0.151408 
-0.892928 0.782431 0.348877 
0.221311 1.023840 0.690676 
0.016075 1.896859 -0.807155 
-0.217619 0.204141 -0.700128 
0.122017 1.632971 -0.765978 
0.553442 1.504655 -0.008441 
-0.197396 1.628830 0.825691 
-0.612805 0.274744 -0.559207 
0.112725 0.672660 -0.611750 
0.624554 1.335004 0.087209 
0.456882 1.608955 -0.516005 
0.263793 0.307984 -0.418817 
-0.722854 0.623051 0.517502 
-0.787431 1.142989 -0.388851 
-0.229778 1.230617 0.811129 
-0.198024 2.049338 0.832494 
-0.968509 2.050603 0.056845 
-0.654708 1.807239 0.686129 
0.478053 0.520463 0.312564 
-0.348691 0.053402 0.376883 
-0.806021 0.307889 -0.319483 
-0.462557 0.121634 -0.641066 
-0.418586 0.557237 -0.699265 
-0.622250 0.809714 0.536949 
-0.753543 1.037067 0.424400 
-0.774884 0.845859 0.368589 
0.477848 0.977012 -0.350932 
0.435493 0.367833 0.030920 
0.600411 2.053044 0.150966 
-0.565711 0.255960 0.567092 
0.375088 0.548027 -0.366241 
0.078792 1.184820 0.765390 
0.565268 1.040454 0.281546 
0.349534 0.412300 0.468159 
0.609012 1.392341 -0.189044 
0.449496 0.636558 -0.234164 
-0.375785 0.307984 0.504308 
-0.016666 1.199948 -0.698886 
-0.914664 0.655897 0.272511 
-0.946260 1.854031 0.090332 
0.293263 2.003942 0.608219 
-0.362756 1.313872 -0.796165 
-0.761326 1.023017 0.500152 
-1.010922 1.876640 -0.114936 
0.637640 1.943100 0.120537 
0.014602 0.053353 -0.301552 
0.196257 0.110799 0.573836 
-0.566972 0.857548 -0.694665 
-0.388333 1.030739 0.776987 
-0.754230 0.370558 0.257982 
0.045065 2.037620 -0.802467 
-0.041673 1.382012 -0.717869 
0.405884 0.778052 0.517946 
0.052384 0.845258 0.651178 
0.641801 1.781109 -0.040366 
0.210515 1.799707 0.648842 
-0.236541 2.053044 -0.814798 
0.449684 1.823195 -0.420170 
-0.890576 1.069407 0.389831 
-0.890610 0.898927 -0.368837 
0.643062 1.861632 -0.055134 
-0.696985 0.998957 0.486471 
-0.979048 1.543605 0.224816 
-0.087531 0.453827 -0.696255 
-0.845940 0.488044 0.013840 
0.261952 0.542494 0.588746 
0.193554 1.950632 -0.671011 
-0.389974 0.053473 0.435675 
-0.263538 0.813278 0.687316 
0.465654 0.217599 0.186714 
-0.304531 0.483569 0.646151 
0.233218 0.920483 0.634693 
-0.818024 1.200049 0.344930 
-0.376510 0.053239 -0.162084 
0.050864 0.673756 -0.638093 
-0.857463 1.441417 -0.303111 
-0.491966 0.088089 0.594245 
-0.819200 1.299059 0.357620 
-0.672076 0.245501 -0.506891 
-0.160903 1.439822 -0.819458 
0.592569 0.738448 0.083264 
0.411524 0.268566 -0.367811 
0.419025 1.779264 -0.458239 
-0.790919 1.564524 0.560347 
0.320071 0.277900 -0.454306 
0.600597 0.863055 0.085993 
0.510300 0.902687 -0.031733 
-1.006469 1.446247 0.030305 
-0.637827 0.104205 0.515208 
0.498419 0.733025 0.016461 
-0.809348 0.365840 0.027550 
0.207747 1.663815 0.639632 
-0.248300 1.847564 0.829054 
0.359104 1.855732 -0.627244 
0.258454 1.216153 -0.640138 
0.487076 0.650683 -0.086534 
-0.705015 0.543535 -0.566467 
0.516862 1.200868 0.398603 
-0.379523 1.499180 -0.714987 
0.035604 1.763936 0.798951 
-0.064736 1.713295 0.818828 
-0.861941 0.313734 0.165342 
0.636478 1.590468 -0.049234 
0.451585 0.955021 0.478812 
-0.459956 2.040426 0.789756 
-0.283541 0.053376 0.372347 
0.506606 1.438001 0.245834 
0.447432 0.723767 -0.258615 
0.630727 1.708802 0.128583 
-0.994247 1.276739 -0.107281 
-0.456596 1.375920 0.772130 
-0.728187 0.482519 0.371053 
0.336418 0.758617 -0.586256 
-0.386810 1.793314 0.733964 
-0.856446 1.022580 0.442036 
0.078170 1.112314 0.661848 
-0.760990 1.108840 -0.566735 
-0.828235 1.525569 0.373780 
-0.698624 1.802670 -0.653895 
-0.984256 1.784010 0.229682 
0.446314 0.208069 0.289974 
-0.881063 0.483590 -0.295965 
0.627911 1.633640 0.133300 
0.192745 0.369204 -0.597312 
0.421370 0.860851 -0.336228 
-0.088756 0.183734 0.654982 
0.368147 1.590313 0.499010 
0.357274 0.400460 -0.306615 
-0.744163 1.791541 0.516985 
0.326078 1.574301 -0.645090 
0.471133 0.852112 -0.440239 
0.315643 1.442665 0.537652 
0.486899 0.728493 -0.125633 
-0.388542 1.639963 -0.800974 
-0.798097 0.105993 0.311376 
0.418983 0.523660 0.282082 
-0.422672 0.053246 -0.099413 
-0.929845 1.543524 0.012870 
0.042242 0.890212 0.760104 
0.564338 0.510972 0.145164 
0.248619 1.157311 -0.569078 
-0.344792 0.611582 0.657549 
-0.177352 0.801998 0.690640 
-1.010556 1.595953 0.046356 
-0.876099 0.447419 0.225111 
-0.854262 0.978201 0.223279 
0.415530 0.748616 0.329818 
-0.163348 0.307984 0.559326 
-0.220370 0.294434 0.702662 
0.047903 0.307984 -0.478465 
0.004386 0.053232 -0.147379 
0.393702 1.373381 -0.445417 
0.375855 0.136311 0.301814 
0.098168 0.992144 0.748064 
0.119043 0.307984 -0.314552 
0.379989 0.444930 -0.277045 
-0.699509 1.907810 0.572376 
-0.959210 0.722285 0.125728 
-0.423861 0.631565 -0.700965 
-1.003766 2.053011 0.113418 
-0.697973 1.834274 0.655326 
-0.100584 0.385711 0.703833 
0.475748 1.551686 -0.488998 
-0.692500 0.526433 -0.437840 
-0.469146 0.307984 0.486621 
-0.659740 0.857741 0.508868 
-1.004457 1.606850 0.112559 
-0.929182 1.905261 -0.198915 
-0.574266 0.933364 0.696218 
-0.922147 0.711999 -0.152867 
0.575394 0.762002 0.190445 
0.511401 1.348027 0.211238 
0.173397 0.797050 0.700912 
-0.890553 1.313472 0.185133 
-0.226657 1.376763 -0.816814 
-0.695600 1.641054 -0.650917 
-0.220886 1.463382 -0.736706 
0.382008 1.190146 -0.577271 
0.620379 1.682069 -0.179432 
-0.934892 0.991986 -0.285296 
0.645852 2.047537 -0.043964 
-0.944235 0.913732 0.227940 
-0.896408 2.002726 0.311236 
-0.396783 0.220263 -0.668730 
0.151431 0.876605 -0.608475 
0.154120 0.135134 -0.606699 
0.184693 1.131226 -0.610229 
0.180257 0.191874 0.529356 
-0.954441 1.984312 -0.098115 
-0.158665 2.034523 -0.776376 
-0.044241 1.677107 0.739152 
-0.423428 0.053226 -0.005101 
-0.890150 0.319351 0.049129 
0.500123 0.866628 0.108007 
-0.205320 0.585073 -0.770915 
-0.277262 1.974307 0.767589 
-0.617131 0.346399 0.560311 
-0.038298 0.053516 0.501903 
0.529101 0.488128 -0.248679 
-0.152134 0.631135 -0.774260 
-0.959192 1.816919 -0.305532 
-0.927896 2.053044 0.290324 
-0.620841 1.593930 -0.701206 
0.376416 0.953939 0.565930 
-0.201607 0.307984 -0.089555 
-0.698236 0.053584 -0.294421 
0.279461 1.023714 -0.531355 
0.150830 0.408972 -0.525728 
0.603258 1.620667 -0.238320 
-0.664010 1.105263 0.649641 
-0.753825 1.181954 0.440930 
0.344470 0.476441 0.377971 
-0.008973 1.475935 -0.801544 
-0.080835 1.036403 0.763681 
0.149498 0.075414 0.560080 
0.355055 1.555753 0.620709 
0.521714 1.405438 -0.191169 
0.017635 0.307984 -0.299318 
0.427289 0.115565 -0.322645 
-0.472621 0.458433 -0.571630 
-0.868840 1.403140 0.269627 
0.153420 0.053400 -0.226498 
0.488734 0.838645 -0.334687 
-0.075444 0.053572 0.568225 
-0.823836 0.617071 0.439448 
-0.633536 0.053474 -0.179176 
-0.387753 0.317494 0.587637 
-0.267892 1.239209 -0.808358 
-0.594467 0.573386 -0.536023 
-0.922260 1.492799 0.079881 
0.247429 1.645466 -0.611831 
-0.084763 1.454138 0.803462 
0.454606 0.989848 -0.290365 
-0.328637 0.307984 -0.596461 
0.486833 0.515349 -0.310511 
0.528787 1.007267 -0.339891 
-0.821286 1.486372 -0.521860 
-0.570430 0.925845 -0.585565 
0.183296 0.428709 -0.611217 
-0.362316 0.053190 -0.097146 
0.328261 1.287386 -0.630833 
-0.877967 1.650010 0.292896 
-0.112830 0.053404 0.405975 
0.515598 0.316430 -0.054922 
-0.998517 1.447109 -0.118138 
0.350280 0.698886 -0.421979 
0.638579 1.644540 -0.028894 
0.511798 1.956011 0.454696 
0.437032 0.401156 -0.026971 
0.518440 1.572469 -0.240923 
-0.224204 0.860734 0.791354 
-0.201421 0.854376 0.694279 
-0.840912 0.893533 0.450435 
-0.875495 0.448395 -0.229404 
-0.820997 1.381912 -0.366528 
0.509892 0.120505 -0.019798 
0.236543 0.383907 0.568539 
-0.050180 0.307984 -0.320899 
0.506494 1.317432 -0.429088 
-0.617295 0.336438 -0.559527 
-0.912625 0.515592 -0.141132 
-0.895386 1.960501 -0.306407 
0.310802 1.343648 -0.647654 
-0.252479 1.454782 -0.817861 
-0.692373 1.998126 0.586984 
0.211701 2.042033 0.734066 
0.593731 1.924964 0.290020 
-0.888213 1.123241 -0.134934 
-0.169225 0.053226 -0.235560 
-0.878175 1.421698 -0.248633 
-0.927621 1.532229 -0.052527 
-0.874943 0.843884 -0.091775 
0.176750 0.063569 -0.525914 
-0.952135 0.978038 0.231523 
-0.283943 0.566961 0.665561 
-0.241351 0.053361 -0.366394 
-0.298091 1.654687 0.819061 
0.053364 1.041468 -0.665898 
-0.410705 0.486858 -0.706614 
-0.665882 0.307984 0.388069 
0.548302 0.867911 -0.296834 
0.393128 1.091073 -0.412255 
0.367214 2.053044 -0.593256 
0.056987 1.364545 0.779955 
0.529338 1.667696 0.228367 
0.250803 1.351056 -0.584296 
0.013985 0.053356 0.304727 
-0.862424 1.795572 -0.482174 
-0.952021 0.982320 -0.229668 
0.312060 1.529998 -0.549351 
-0.001270 1.344367 0.794987 
0.504236 1.882855 -0.463627 
-0.350157 1.240885 -0.796088 
-0.958830 2.011467 -0.318646 
0.164615 1.317150 -0.736126 
-0.822346 0.137157 0.007923 
-0.576480 1.197515 0.604605 
-0.117408 0.552017 0.717106 
0.453610 1.265628 -0.502024 
-0.856284 1.601529 0.332548 
-0.300622 0.757998 -0.777253 
0.556920 1.808671 0.369576 
-0.652915 0.748923 0.504458 
-0.380407 1.944734 -0.810451 
-0.947060 1.999231 0.150368 
0.538943 1.661023 -0.195398 
-0.688720 1.201865 -0.636807 
-1.008517 1.506305 0.031333 
-0.897893 1.188307 0.388126 
0.516213 1.708307 0.273427 
-0.102767 0.248807 0.665137 
-0.597301 1.122193 0.584092 
0.444892 1.926554 -0.542912 
0.559242 1.633354 0.353872 
0.493154 2.053044 0.403294 
-0.255638 0.883651 0.693224 
0.558277 1.968383 0.204126 
0.160440 0.772015 -0.706058 
-0.763884 0.375453 -0.236905 
-0.623744 0.794414 -0.534296 
0.460381 0.514840 -0.163297 
0.381286 0.435880 -0.438922 
-0.301239 0.053565 0.560251 
-0.928782 0.716015 -0.232039 
-0.406899 1.672445 -0.719162 
-0.159181 0.253768 -0.701346 
-0.684914 1.083336 0.507401 
0.238937 1.792184 -0.630276 
-0.933346 1.601349 0.029422 
-0.900570 1.622222 -0.415345 
0.461807 1.858809 0.405226 
-0.265762 0.970731 -0.795111 
0.334367 0.748351 -0.447327 
0.417573 1.602093 -0.561269 
-0.748709 1.832678 0.612045 
0.294072 0.176730 0.476295 
0.368278 0.307984 -0.231238 
0.099330 1.698669 0.697567 
-0.483932 0.591617 0.606099 
-0.963783 0.730159 -0.102186 
0.574265 1.355388 -0.296818 
-0.610041 1.129553 0.687300 
0.557007 1.247230 -0.327841 
-0.566481 0.429271 0.605693 
-0.244912 1.171920 -0.807472 
-0.833966 0.193192 -0.007857 
-0.615263 1.258651 -0.691270 
-0.327892 0.053158 0.093088 
-0.868525 0.187521 -0.121717 
0.436629 0.845547 0.487077 
-0.926911 1.653051 -0.368262 
-0.128100 1.454671 -0.734692 
-0.960373 1.198058 -0.242241 
-0.850517 1.773924 0.368732 
-0.567187 0.610322 0.673437 
-0.683484 0.619121 -0.593694 
-0.949936 1.848217 -0.043915 
-0.499352 1.807367 -0.769453 
-0.368175 0.483028 0.630919 
-0.673006 0.854820 -0.496141 
0.351065 1.579217 -0.516058 
0.450044 1.415120 -0.514731 
-0.494557 1.500195 0.762485 
-0.289653 0.307984 0.049340 
0.434335 0.571434 0.324720 
0.039067 1.232356 -0.780049 
-0.312074 1.839440 0.821488 
-0.529037 0.495600 0.681394 
-0.937890 1.016912 0.281617 
-0.417169 0.818079 0.754984 
-0.937895 1.726095 0.085845 
0.064037 1.584118 -0.702430 
0.182541 1.498863 0.641699 
0.061054 0.817922 -0.645782 
0.520524 1.061854 0.054609 
0.185456 1.588061 -0.735839 
0.484906 1.658298 0.336310 
0.460938 0.262503 -0.271465 
-0.958056 1.240861 0.179730 
0.441156 1.126873 -0.339628 
-0.850102 0.315957 0.237867 
-0.545034 1.980283 0.685260 
-0.922778 1.474388 -0.060975 
0.011276 0.149369 -0.651591 
0.261918 2.005038 0.703629 
-0.878939 0.613599 -0.346164 
-0.918613 1.910861 0.397056 
-0.812744 0.454148 0.114436 
0.617119 1.575916 0.180937 
-0.897307 1.281117 -0.146335 
0.087880 0.053393 -0.292028 
0.601260 1.989584 0.274052 
0.084448 1.798010 0.784688 
-0.212581 1.970701 0.833389 
0.301559 1.385150 0.545417 
-0.950426 1.176499 0.203869 
-0.230906 1.057686 0.707959 
-0.003604 0.307984 -0.115433 
0.432472 1.201444 -0.366236 
-0.011969 2.053044 -0.777973 
-0.280174 1.007064 0.699812 
-0.909401 0.810868 -0.317236 
-0.308048 1.889181 0.757345 
-0.496251 0.053300 -0.014716 
-0.836873 0.971335 -0.268306 
0.567789 0.650955 0.182858 
-0.649265 1.271423 0.669857 
0.095375 0.307984 0.132716 
0.568924 1.786613 -0.078704 
0.326991 1.453252 -0.639387 
0.605681 1.149109 0.158984 
0.384514 1.534074 0.474061 
0.574296 1.812479 -0.023840 
-0.869588 0.739281 0.068093 
-0.776722 1.992813 -0.501444 
0.452645 0.074391 -0.128619 
0.181655 0.233349 -0.581067 
0.235069 0.728756 -0.540168 
-0.558248 0.053436 -0.245295 
0.411449 0.053617 -0.173067 
0.178955 1.385130 -0.634679 
0.502453 1.023406 -0.156229 
-0.444818 0.053382 0.294258 
-0.427822 0.053272 0.145435 
-0.871175 1.226595 0.436727 
-0.624758 1.130201 -0.678167 
-0.889287 0.674056 -0.336398 
0.249459 1.164743 -0.664572 
0.286217 0.053512 -0.212421 
-0.892256 1.566239 -0.239757 
-0.415863 1.746555 -0.796519 
0.111649 1.992758 0.779028 
-0.994810 1.163212 0.044561 
-0.971276 1.819437 0.273581 
0.616473 1.507252 0.174869 
-0.505844 0.307984 -0.448960 
0.325358 0.123818 0.471873 
-0.824209 1.756764 0.530146 
-0.095029 1.988425 0.768427 
0.182043 1.528156 -0.644261 
-0.590633 0.991638 0.691291 
-0.318435 0.307984 0.191619 
-0.953529 0.536529 -0.025506 
0.542715 0.568696 0.246316 
-0.937784 1.252933 -0.313226 
-0.619964 1.533160 0.603191 
-0.463422 0.307984 0.361032 
-0.895403 1.055637 0.022392 
0.287339 1.128211 -0.534048 
-0.396246 0.973141 0.671223 
0.302162 1.585420 0.563648 
-0.807455 1.230367 -0.368269 
0.131741 0.733865 -0.607109 
-0.162630 0.460101 -0.639607 
0.621252 1.218183 0.072834 
0.036266 0.902838 -0.762729 
-0.430501 0.887355 0.742557 
-0.375649 1.704887 0.805764 
-0.736796 1.717355 0.619327 
0.371260 0.186856 0.424093 
0.440081 1.404399 0.380933 
0.526503 0.677909 -0.312844 
-0.238276 0.735848 -0.684030 
-0.938386 1.727360 -0.081430 
0.609142 1.338754 0.180184 
-0.876522 0.115809 0.078216 
-0.856992 1.848884 -0.367405 
0.072570 0.670329 -0.733904 
0.290513 0.307984 0.064952 
0.236379 0.589218 0.525147 
0.000541 0.754898 -0.762531 
-0.887998 0.674195 0.339239 
0.067974 0.053287 -0.151202 
-0.125486 0.850866 -0.772742 
-0.398951 0.742019 -0.652815 
-0.860441 0.268434 -0.000851 
0.242243 0.487270 0.578535 
-0.061124 1.527256 -0.731411 
0.500514 1.474051 0.449125 
0.646601 1.976166 -0.025317 
0.013012 0.310917 -0.587639 
0.297913 1.028639 -0.637378 
-0.474121 0.191048 -0.630296 
-0.314115 0.604166 -0.663794 
0.109506 1.423105 -0.672164 
0.583018 1.646421 0.299419 
-0.603493 0.080091 -0.510325 
-0.051436 1.123725 0.701237 
0.638680 1.698594 -0.059141 
0.513730 1.903712 -0.314226 
0.494330 1.727189 0.471116 
-0.519351 1.038666 0.731026 
0.480935 0.302103 -0.222871 
-0.508962 0.307984 -0.369862 
0.432025 1.647451 0.547586 
-0.067018 1.931371 -0.760469 
-0.199935 1.196688 0.718711 
-0.702515 1.655058 0.645742 
0.600903 1.046786 0.158070 
-0.481051 1.870799 0.777831 
-0.993025 1.133657 -0.053494 
-0.126085 1.500649 0.819936 
-0.775494 0.990948 0.387658 
0.383179 0.827014 -0.393458 
-0.490653 1.657856 0.768629 
-0.252393 0.053556 -0.558705 
-0.227296 1.077669 -0.709476 
-0.724108 0.601993 -0.533917 
-0.820285 1.482060 -0.380875 
-0.920946 1.770883 -0.193898 
-0.766264 0.582290 0.344590 
-0.124536 0.687436 0.747950 
0.552060 1.965281 -0.223817 
-0.443622 1.450792 -0.779243 
-0.794125 1.802825 0.565997 
0.193742 2.033656 0.677368 
0.499361 1.103207 -0.352750 
-0.632539 0.861289 0.654919 
0.620694 1.848913 -0.196385 
-0.821685 1.058547 -0.493567 
0.500131 0.803295 0.071862 
0.478791 1.810718 0.370054 
-0.847978 1.448748 -0.485381 
-0.461754 0.567767 0.670224 
-0.522492 0.970077 0.617637 
0.023574 0.535471 -0.737569 
-0.647873 1.616000 -0.589596 
0.146543 1.290159 0.644389 
-0.494580 1.946917 -0.774528 
0.412406 1.260888 -0.550199 
-0.648619 0.062790 -0.441108 
0.492112 0.743294 0.101031 
-0.842666 1.172451 0.290160 
0.318240 1.092956 0.627396 
0.220707 0.307984 0.362143 
-0.562159 1.549925 -0.642397 
0.289580 0.898860 -0.624775 
-0.694300 0.933499 0.614185 
-0.869621 1.988154 0.364081 
0.373309 1.634411 -0.606646 
0.625355 2.053044 0.024005 
-0.363873 1.329510 0.706696 
0.357726 0.496228 0.534029 
0.398377 0.820930 0.369463 
0.207509 0.053386 0.014130 
-0.165327 0.249018 0.701396 
-0.211083 0.638598 -0.677826 
-0.151624 0.060548 -0.634990 
-0.462713 1.414177 -0.680410 
-0.913658 1.347582 0.064001 
0.163804 0.303619 -0.610675 
0.142884 0.053511 -0.400308 
-0.977655 1.868426 -0.257848 
0.222436 1.808593 -0.722571 
-0.846591 1.264405 -0.297215 
0.357852 1.637062 -0.514703 
0.126681 0.307984 0.471005 
-0.076806 0.455858 0.627565 
-0.927352 1.594215 -0.099446 
-0.669846 1.217809 0.534556 
0.078333 0.053316 0.188664 
0.574410 0.926292 0.233026 
-0.982824 1.718094 -0.228396 
-0.030949 1.851533 0.748544 
-0.198891 0.983379 -0.703676 
0.506748 0.318194 0.124338 
-0.389490 1.182660 0.688812 
0.626838 1.774584 0.162630 
-0.208178 0.567616 -0.672187 
-0.465264 1.672190 0.698604 
0.454479 0.392935 0.303304 
0.186023 0.574964 0.673989 
0.396327 0.360535 0.218294 
0.468247 1.599578 0.358980 
0.114791 0.926727 0.737393 
0.044010 0.484584 0.615307 
-0.842677 1.838942 0.391369 
-0.775761 1.706033 -0.471645 
0.488064 1.022563 0.209189 
0.469088 1.686415 -0.370208 
-0.317085 0.307379 0.692155 
-0.825471 0.142701 0.132784 
-0.399441 0.307984 0.054956 
-0.777673 0.311955 0.189936 
0.087497 0.307984 0.523757 
-0.248732 0.531252 -0.764184 
0.487168 0.124291 0.166364 
-0.816479 1.708359 -0.416663 
0.102532 1.931004 0.781008 
-0.772967 0.766417 0.360718 
0.087634 1.764349 0.706821 
-0.862374 2.009726 -0.490323 
-0.567567 0.307984 -0.440257 
-0.752757 1.346695 -0.460417 
-0.312522 0.307984 -0.407567 
-0.670666 0.860915 -0.627529 
-0.017147 1.071434 0.689683 
0.495524 0.963757 -0.166942 
-0.296591 0.650596 0.768909 
-0.342953 1.756803 -0.741896 
-1.005899 1.777455 -0.131771 
0.474014 0.957581 -0.236476 
-0.454343 0.053312 -0.178825 
0.443759 0.304943 -0.312165 
-0.748050 1.163265 -0.445847 
0.366157 0.796108 0.413315 
-0.862093 1.509981 -0.304424 
0.425024 0.312905 0.102692 
-0.384987 0.946902 -0.772596 
0.519564 0.571830 -0.306510 
0.103264 1.455345 0.677441 
-0.911014 0.573483 -0.226389 
-0.593055 0.686541 -0.548027 
-0.835855 1.747191 -0.515561 
-0.765993 1.998194 0.514531 
0.253936 1.752975 0.701898 
0.157346 0.676036 0.698971 
0.368413 1.121616 -0.585552 
-0.836437 1.322253 -0.493857 
-1.022371 2.028040 -0.001216 
-0.044208 0.307984 0.243914 
-0.245030 0.523590 0.763918 
-0.730227 0.916024 0.439781 
-0.151345 0.692236 -0.779376 
-0.859100 0.611679 0.382820 
-0.052428 0.730064 -0.759552 
0.057972 0.452121 -0.685924 
0.563488 0.938923 -0.269165 
-0.047502 1.141646 -0.795576 
-0.812044 1.283222 0.521930 
0.172199 0.251738 0.603213 
0.266876 1.819981 0.612549 
0.550986 1.648174 0.137956 
0.307709 1.382322 -0.539371 
-0.146599 0.053046 -0.038948 
0.164227 0.053446 -0.288730 
0.131098 1.614570 -0.677012 
-0.979904 2.053044 -0.200385 
-0.486612 0.906816 0.630733 
-0.886070 0.589275 0.326201 
0.378405 1.692206 -0.498398 
0.402208 0.307984 0.194262 
-0.719742 1.286063 -0.616348 
-0.000350 1.320388 0.703791 
0.312366 1.098168 -0.632525 
0.092070 0.053514 -0.440670 
-0.253073 0.307984 0.179868 
0.431649 0.855347 -0.494167 
-0.924532 0.789022 0.276123 
-0.446924 1.135146 0.665485 
-0.229621 0.053280 -0.285950 
-0.298503 1.313473 -0.807925 
-0.809329 0.053620 -0.062904 
-0.938174 0.905272 0.161344 
0.207288 0.744728 -0.678492 
0.162490 1.150581 -0.729103 
-0.166298 1.799906 -0.760415 
0.421739 0.884610 0.339242 
-0.520169 1.981886 -0.697936 
-0.908741 1.503594 0.165254 
-0.884262 0.898341 -0.018137 
-0.469450 0.307984 -0.307210 
0.363394 0.532136 -0.533961 
-0.321511 0.053448 0.435981 
0.469962 1.265293 0.303564 
-0.212270 1.799153 -0.829623 
-0.524473 1.566538 0.663955 
-0.962393 1.326483 -0.254214 
-0.838044 1.668375 -0.376732 
0.643904 2.011853 0.080261 
-0.724939 1.631240 0.521296 
0.062254 1.654571 -0.708332 
-0.154999 0.307984 -0.382705 
-0.207249 0.398725 0.709567 
0.447153 1.345554 0.361164 
0.531014 1.263899 -0.094550 
0.394066 1.772670 -0.592192 
0.053905 1.497019 -0.699799 
-0.381100 0.307984 -0.526998 
-0.179621 0.307984 0.500250 
0.297064 1.897163 -0.595666 
-0.212998 0.307984 -0.183050 
-0.593301 1.257768 -0.598763 
0.577824 1.420755 -0.293778 
-0.913389 1.851742 -0.238230 
-0.159886 1.026402 0.706282 
-0.978911 0.973410 0.108431 
0.330144 1.738767 0.647407 
-0.332633 0.558855 -0.755197 
-0.336743 0.701338 -0.766524 
-0.931522 0.752735 0.231109 
-0.350396 0.307984 -0.461188 
0.551239 0.524754 -0.205513 
0.591961 1.568962 -0.269805 
-0.170010 0.135550 0.702480 
0.146237 0.400087 0.528179 
-0.808675 0.770727 0.295632 
0.639265 1.712984 0.057063 
-0.241189 1.686586 0.825759 
0.144999 0.053556 0.454162 
0.302219 0.911139 0.627245 
-0.835676 2.048471 0.436178 
-0.285487 1.583752 0.818624 
0.610177 1.240860 -0.158888 
-0.987170 0.984921 -0.008634 
0.513530 0.234919 -0.037079 
0.581474 0.635898 -0.105252 
-0.196595 0.459334 0.734284 
0.451159 1.488516 -0.374133 
0.577736 0.767983 0.032494 
-0.873921 1.198245 -0.212222 
-0.911176 1.285753 0.036481 
-0.745598 1.551545 -0.491233 
-0.833211 0.351798 0.285189 
-0.788442 1.503779 0.560370 
0.047651 1.265093 -0.684898 
0.407017 1.066256 0.389170 
-0.712851 1.376357 0.626072 
0.516034 2.024106 0.450718 
0.391890 0.417564 0.236733 
0.191738 1.328703 0.722783 
-0.642526 1.399671 -0.574568 
0.103521 0.701774 0.618368 
-0.855109 1.013988 -0.228754 
-0.391354 0.189093 0.668735 
0.014274 1.196618 0.690275 
-0.568418 0.053417 -0.188014 
-0.947369 0.523665 -0.093330 
-0.741699 1.689112 -0.613709 
-0.146868 1.321168 -0.814859 
-0.972559 0.885209 0.112496 
-0.891328 1.656058 -0.259833 
-0.164360 0.453465 -0.728991 
0.008439 0.590791 -0.746660 
-0.783416 0.212427 0.367965 
-0.018270 1.859785 0.814326 
-0.907258 2.046809 0.421141 
0.514943 0.366982 0.092467 
-0.121875 0.307984 0.230747 
-1.013206 1.768041 0.070886 
-0.618937 0.053425 0.037188 
-0.931954 1.761663 -0.364561 
0.514713 1.166485 -0.403310 
-0.234086 1.172237 0.808224 
0.161728 0.324300 0.612962 
0.252299 1.864235 -0.705969 
0.541590 1.695821 -0.392132 
0.322974 0.648240 -0.585920 
-0.202062 0.974112 0.702912 
0.050053 1.303494 -0.779827 
-0.794081 1.964474 0.571245 
-0.571041 1.164025 -0.605190 
-0.950767 1.550776 0.308449 
0.386066 0.307984 -0.111665 
0.598055 2.052954 -0.253721 
-0.386800 1.810184 -0.735165 
-0.657648 1.434101 0.670916 
0.038243 1.479597 0.789826 
0.023312 0.986300 -0.671946 
0.476880 0.144783 -0.231045 
-0.932474 1.665500 -0.098732 
-0.949831 2.053044 -0.275343 
0.128510 1.160024 0.745055 
-0.796722 0.868029 -0.334530 
-0.960210 1.976608 0.312803 
0.282897 0.850867 0.511027 
-0.754966 1.771007 -0.503432 
-0.968423 0.711507 -0.021099 
-0.373291 0.307984 0.234373 
-0.867083 0.670541 0.027790 
-0.010071 1.032979 0.782792 
-0.686034 0.369932 0.373366 
-0.998827 1.337284 -0.083668 
-0.250927 0.307984 -0.386580 
0.581560 1.541093 0.295409 
-0.882837 1.573004 0.265973 
-0.144346 1.868104 -0.830576 
-0.477491 0.307984 0.077327 
-0.188137 0.053561 -0.567455 
-0.890159 1.523847 0.236797 
0.501289 1.491719 0.270420 
-0.758295 1.248654 0.578755 
-0.283821 0.053506 0.504342 
-0.735370 0.374414 -0.296342 
0.040363 0.307984 -0.024699 
-0.202769 0.944155 -0.797404 
-0.744907 0.883114 -0.417328 
-0.538214 1.593561 -0.746185 
-0.705824 0.591386 0.571221 
-0.565081 0.120581 -0.585555 
-0.073477 1.891027 0.758758 
-0.845256 1.397310 0.322749 
-0.485870 1.180684 -0.737691 
0.201578 0.808967 -0.686626 
-0.562012 2.053024 -0.734187 
-0.012608 0.307984 -0.472238 
-0.864215 1.571327 0.469466 
0.047652 1.583399 0.790281 
-0.440340 0.307984 0.565049 
-0.925215 0.960522 0.305435 
0.373544 1.272523 0.458766 
0.579770 1.973823 0.099294 
0.183264 1.760525 0.742193 
0.577624 0.680547 -0.151209 
0.257856 1.929546 -0.704202 
0.426123 1.176683 0.529013 
-0.572197 0.535337 0.663503 
-0.050125 0.457430 -0.623268 
0.135194 0.053373 0.204284 
-0.309857 1.360666 0.720189 
0.323483 0.916594 -0.477428 
0.023800 1.087074 0.777448 
0.146404 0.307984 -0.101535 
-0.566565 0.800252 0.577195 
0.450665 0.077474 0.152828 
-0.294188 0.861598 -0.686781 
0.304892 0.405978 -0.513275 
-0.625341 0.283127 0.549448 
0.517019 1.297971 0.179046 
0.206239 0.422254 0.486197 
0.619733 1.238065 -0.097415 
0.322773 2.052805 -0.650129 
-0.267208 1.786082 -0.755653 
-0.556467 0.053576 -0.450666 
-0.836710 0.475020 -0.044837 
-0.407572 1.997015 -0.804970 
-0.449917 0.485927 0.603177 
-0.369108 1.218648 -0.697447 
0.119440 0.531946 -0.594947 
-0.160407 1.381260 -0.817404 
-0.639092 0.053455 0.102157 
-0.940590 1.573662 -0.333513 
-0.805520 1.934605 -0.558069 
-0.043430 0.514188 -0.745830 
0.468271 0.588602 -0.160164 
0.120885 0.498851 0.588065 
0.510447 1.863293 0.314637 
-0.534618 1.289100 -0.636749 
-0.587478 0.371193 -0.477524 
0.073220 0.057370 -0.575953 
0.502200 0.828010 -0.068978 
0.329333 0.589871 0.573553 
-0.877931 0.858957 0.387038 
-0.347899 0.447661 -0.611701 
-0.627509 0.307984 0.096338 
-0.736997 0.851178 -0.499501 
-0.753754 0.693600 -0.475159 
-0.017885 1.321207 -0.707963 
0.451550 2.038263 0.443516 
-0.391089 0.594425 -0.744627 
-0.755460 0.053618 -0.255944 
-0.850219 1.103584 0.259518 
-0.375396 0.307984 -0.017802 
-0.740015 0.826110 0.417037 
-0.111612 1.722221 0.751721 
-0.826475 0.261357 -0.289716 
-0.220864 0.437193 -0.627228 
0.206522 0.433613 0.563643 
-0.749160 0.462767 0.457682 
-0.908671 1.726170 0.406483 
0.495071 1.013215 0.421207 
0.473618 1.748514 -0.500996 
-0.147349 1.805950 -0.829307 
0.217859 0.667874 0.547223 
0.449439 0.564433 -0.362750 
-0.621826 0.612674 -0.639729 
-0.418462 2.047573 -0.745635 
0.516640 1.085937 -0.104827 
0.522100 0.652642 0.314244 
0.399349 1.377772 0.570291 
-0.613823 1.321271 0.694926 
0.572711 1.055780 0.001029 
-0.833586 0.506845 -0.407851 
-0.681561 0.457251 -0.402891 
-0.661615 0.329157 0.521508 
-0.064637 0.506063 0.654808 
0.331643 0.669477 0.441058 
-0.092062 1.341517 0.723372 
-0.823559 1.381062 -0.513270 
-0.507202 1.796808 -0.689821 
0.622429 1.456173 0.133685 
-0.988023 2.053044 -0.053625 
-0.346823 0.988994 -0.784189 
-0.223222 1.102615 0.805306 
0.067686 0.752480 -0.638218 
0.577605 1.870374 -0.044858 
-0.737854 0.053587 0.219646 
0.399591 0.258824 0.386425 
0.575017 1.913776 -0.103659 
-0.766173 0.783136 -0.482494 
-0.909396 0.446267 -0.051646 
0.571197 0.597463 0.147759 
0.171072 1.451453 -0.644064 
-0.743956 0.448425 0.300117 
0.492906 0.248113 0.142313 
0.218544 0.297025 -0.565478 
0.124814 1.201159 -0.748864 
0.411493 1.663236 0.455142 
-0.653481 0.380978 -0.533706 
-0.278916 1.947949 -0.828253 
-0.708362 1.500536 0.635348 
0.604005 0.919380 -0.087787 
-0.916619 1.412867 0.080666 
-0.047798 0.409610 -0.697982 
0.429724 2.017437 0.562826 
-1.003800 1.361901 -0.022184 
0.565908 0.832346 0.240566 
-0.556403 1.776542 0.663365 
-0.578000 1.318832 -0.715716 
0.549623 0.933421 0.305182 
0.542946 0.559595 0.024327 
-0.973212 1.466355 -0.235288 
-0.506033 0.307984 0.142817 
0.254178 0.781360 0.529552 
-0.509686 0.694300 -0.601447 
-0.478441 1.853687 -0.707022 
0.153215 0.653333 0.588597 
0.286675 1.125841 0.534446 
-0.573174 0.314647 0.589389 
-0.377593 0.307984 -0.187243 
-0.110392 0.782129 -0.685050 
-0.779727 1.871962 -0.583595 
0.362205 1.814563 0.527992 
-0.918312 1.547010 -0.134359 
-0.648752 1.012543 -0.534170 
0.015263 0.053603 -0.574143 
0.559026 1.752508 -0.133083 
-0.884255 0.740640 -0.358774 
0.573997 0.581071 -0.122416 
-0.057622 1.390307 0.807727 
-0.990703 1.335291 -0.141201 
0.239522 0.053423 0.068449 
-0.915188 1.342394 -0.034890 
-0.098522 0.053344 0.342319 
0.556768 0.909158 0.001918 
-0.304233 0.307984 0.131572 
-0.715866 0.511200 0.552583 
-0.918454 1.498515 0.374879 
-0.395781 1.419673 -0.792315 
-0.821065 0.584569 0.228843 
-0.690287 1.755688 0.566662 
-0.650543 1.688504 -0.685339 
0.431478 0.357490 -0.073376 
0.233436 0.962704 -0.678278 
-0.815755 0.496992 -0.211453 
-0.863232 1.940834 -0.369099 
0.591244 0.965155 0.179184 
-0.264443 1.224313 0.716758 
-0.900358 0.590247 -0.294834 
0.512445 0.742440 -0.322891 
0.512824 1.553118 0.251979 
-0.184449 1.057579 0.804352 
-0.017160 0.806676 0.770027 
0.223616 0.457363 -0.570620 
-0.673682 1.089732 -0.641815 
0.287378 1.588551 0.674408 
-0.873304 1.238820 -0.434403 
-0.045203 1.915538 0.820448 
-0.509916 1.378184 -0.656770 
0.550031 1.382405 -0.355205 
-0.444599 0.307984 -0.524290 
-0.889713 0.301082 -0.039719 
-0.604343 0.660090 0.537050 
0.127351 0.846113 -0.726298 
0.184330 0.890441 0.590136 
-0.951208 2.053044 0.205510 
0.326292 0.907082 0.473414 
-0.836582 2.049243 0.520597 
-0.299552 0.053444 -0.438262 
-0.717667 0.366361 0.468240 
0.298115 0.163556 -0.506311 
-0.873452 2.043653 -0.367507 
-0.384598 0.307984 -0.307332 
0.011078 0.053564 0.534346 
-0.363464 1.903293 0.813466 
0.434801 0.164072 0.169343 
-0.473307 1.536291 0.685317 
0.576167 1.873940 0.330953 
-0.441728 0.687532 -0.632815 
0.494784 0.695297 -0.039252 
-0.147201 0.501068 -0.758263 
-0.140216 0.758032 0.783467 
-0.720680 1.331830 0.495470 
-0.732505 0.743507 0.563820 
-0.888389 0.378728 -0.100143 
-0.156785 1.095798 0.711070 
-0.193530 1.442398 0.736087 
0.469233 0.709240 0.192374 
-0.758703 0.203305 0.298012 
-0.344312 1.142682 -0.697753 
-0.002512 0.804629 0.666047 
-0.709630 0.686760 0.578642 
0.536539 1.897594 -0.256497 
-0.035943 1.657597 -0.812558 
0.305545 0.478782 -0.430509 
0.227477 0.840595 -0.631293 
-0.023590 0.053419 -0.395082 
0.132786 0.486744 -0.686105 
0.029482 1.815559 -0.802093 
-0.058057 0.845245 -0.682030 
0.645385 1.918023 -0.023346 
-0.239978 1.351071 0.815465 
-0.281200 1.144608 -0.709485 
-0.209554 0.053196 0.204812 
-0.647392 1.494923 0.680890 
0.026014 0.053219 -0.084947 
0.570217 0.608350 0.041737 
-0.731671 0.491538 -0.374752 
-0.058077 0.312896 0.692654 
0.089054 1.256978 -0.765183 
-0.548957 0.191916 -0.529450 
-0.266221 0.307984 0.391416 
-0.843132 0.662604 -0.417049 
0.478214 0.673528 0.146480 
0.256725 1.612055 -0.695718 
0.131040 0.053345 -0.154913 
0.173592 1.362675 0.635768 
-0.241699 2.050658 0.781846 
-0.799563 0.473036 0.425775 
-0.187652 0.307984 -0.616115 
-0.484516 0.375363 -0.547825 
-0.120292 1.525554 -0.738883 
-0.484273 0.686028 0.693847 
0.009884 0.405914 -0.683121 
-0.277021 1.516817 0.817593 
-0.861702 0.599105 -0.024662 
-0.790192 1.796852 -0.570005 
0.064408 0.585726 -0.729376 
0.098117 0.664417 0.723812 
-0.626586 1.774812 -0.703322 
-0.776841 0.325744 -0.194970 
0.481453 1.453068 -0.309923 
-0.107944 1.761711 -0.825318 
0.516946 1.890203 0.443680 
-0.034198 0.307984 -0.543152 
-0.346435 1.440189 -0.718659 
-0.470617 1.433543 0.750851 
-0.512292 0.053375 -0.203986 
0.431942 1.997168 -0.465770 
-0.496455 0.318656 0.538435 
0.596520 1.418116 0.238917 
-0.104172 0.307984 0.322857 
-0.126000 0.307984 -0.616151 
0.410899 1.433727 -0.560761 
0.568732 1.259603 0.301754 
-0.790786 1.841120 0.467930 
-0.999767 1.861086 -0.175107 
-0.435061 0.080147 0.610741 
-0.786427 1.504891 -0.434816 
-0.257949 0.902149 -0.791518 
0.616429 1.061802 -0.037280 
-0.847484 2.008439 -0.405545 
-0.735807 0.053573 -0.187076 
0.520056 1.790670 -0.279292 
-0.805868 0.330050 0.338044 
-0.212059 0.307984 -0.340423 
0.256929 0.987217 0.621859 
0.398522 0.117332 -0.374936 
-0.771053 1.456891 0.450250 
0.170641 1.616598 0.657261 
0.452517 1.563600 -0.381817 
-1.012815 1.768812 -0.075031 
-0.380907 2.053044 0.791552 
-0.926078 1.921497 0.212848 
-0.661798 1.803480 0.594847 
0.313522 1.009986 0.497868 
-0.788884 1.931918 0.480000 
-0.532249 1.254098 0.635218 
-0.890688 1.084882 0.103070 
-0.340223 0.053416 -0.394960 
-0.047358 0.053243 -0.211019 
-1.010991 1.825693 0.107026 
0.216468 0.053453 -0.223738 
-0.488985 2.053044 -0.730620 
0.643810 1.843638 0.021471 
-0.504013 0.991219 -0.732031 
0.489839 1.316892 0.266363 
0.553839 2.045007 -0.385148 
-0.734491 0.830097 0.569856 
0.398736 0.365549 -0.212540 
-0.819556 0.985389 0.489994 
0.632498 1.869825 -0.141789 
-0.843677 1.460525 0.335433 
0.053441 1.305687 0.778879 
-0.612427 0.428787 0.458422 
0.500637 1.079193 0.418196 
-0.078846 1.188192 -0.710345 
-0.889461 0.982548 0.382183 
0.493564 0.285210 -0.000817 
-0.834358 0.799075 -0.449291 
-0.924597 1.384903 -0.353816 
-0.213942 1.665303 -0.826113 
0.369181 0.735479 0.401377 
-0.570626 0.917884 0.584764 
-0.905074 0.762390 -0.195593 
0.169469 0.307984 0.331311 
0.361105 1.327086 -0.604664 
-0.261663 0.338099 0.617346 
-0.930245 0.839673 -0.270055 
0.422810 0.307984 -0.026286 
0.384295 0.053576 -0.116997 
0.546271 1.572382 0.134263 
-0.776862 0.345885 0.388337 
-0.891224 1.257204 0.164880 
-0.353751 0.053294 -0.253082 
0.015816 1.403900 -0.704983 
-0.956655 1.621114 -0.298062 
-0.165043 1.243522 -0.721735 
-0.596485 2.007380 0.727411 
-0.759456 0.684412 -0.370541 
0.324510 0.576903 -0.576556 
-0.762007 1.041883 -0.560475 
0.532259 0.468384 0.183015 
0.464088 0.215916 0.004699 
-0.287890 0.441223 0.713675 
0.290486 0.664178 0.484844 
0.524451 1.187560 0.101543 
-0.489435 0.307984 0.018588 
-0.685982 0.924563 0.490335 
0.519929 0.415732 0.019491 
-0.268303 0.588157 -0.767027 
0.124022 0.307984 -0.478315 
0.638509 1.648811 0.034388 
-0.435890 1.197387 -0.771393 
-0.713909 0.563148 0.492067 
-0.842360 1.199615 -0.295507 
-0.571577 1.881191 -0.663319 
0.587623 1.503617 -0.275893 
-0.755398 1.308448 0.584668 
0.484521 2.019392 -0.389480 
0.340617 1.396873 0.625660 
-0.090697 0.465710 0.694391 
-0.495560 0.053365 0.211233 
0.229867 0.053562 0.386478 
-0.969855 0.885737 -0.128970 
0.496194 0.354645 0.182283 
-0.322141 1.513488 -0.728903 
-0.936772 1.957048 0.364583 
0.204604 1.597823 -0.636201 
-0.113919 0.053502 0.504375 
-0.117171 1.158990 -0.803064 
0.398791 1.025733 -0.396457 
0.403043 1.245755 0.417173 
-0.147666 0.566642 -0.768346 
-0.943822 1.988410 -0.161241 
-0.567329 0.939443 -0.700382 
0.059152 1.559456 0.702443 
0.196345 0.900510 0.696039 
-0.870270 1.712599 0.320480 
-0.275957 1.862641 -0.760061 
-0.359636 0.921523 0.776820 
-0.957575 1.362227 -0.190456 
-0.921108 1.227330 0.346986 
0.399627 1.372887 0.437183 
-0.124507 1.845990 -0.761478 
0.470010 0.083567 0.089029 
-0.792639 1.343446 -0.407004 
0.265237 0.960839 -0.537299 
-0.698759 0.053513 0.093829 
0.275222 1.294210 -0.559660 
0.307647 0.790398 -0.480967 
-0.279881 1.715282 -0.749545 
-0.287735 1.114347 0.800410 
-0.948723 0.797337 -0.147614 
-0.974911 0.987183 -0.137809 
-0.301762 0.110814 -0.680058 
-0.033730 1.609221 0.732165 
-0.244176 0.053483 -0.487450 
-0.558979 1.243769 -0.722579 
-0.194456 1.269465 0.724002 
0.134286 0.934200 0.622310 
-0.520441 0.215486 0.616403 
0.002119 0.307984 0.533285 
-0.748636 0.870473 -0.558184 
-0.772833 0.274189 -0.388310 
-0.996652 1.197831 -0.038392 
0.532752 1.391185 0.139188 
0.484274 0.773186 0.403658 
-0.606345 1.423532 0.703824 
0.131614 1.984110 -0.704761 
-0.345564 1.373182 -0.714097 
-0.689056 0.798591 0.473762 
-0.554935 1.637112 0.653312 
-0.133160 1.944008 -0.769102 
0.503705 0.802358 0.011089 
0.442047 1.463592 0.385541 
-0.929265 1.863005 -0.374901 
0.411712 0.627883 0.317197 
0.057000 0.307984 0.463519 
-0.107015 1.792882 0.826021 
-0.762534 1.597195 -0.590895 
0.124410 1.077200 0.638849 
0.104009 0.307984 0.410137 
0.565144 2.053044 0.245071 
-0.749795 0.631291 -0.470299 
0.070725 1.452008 -0.779012 
0.264845 1.988364 -0.701377 
-0.714401 0.899550 -0.594657 
-0.996740 1.314557 0.096609 
0.426985 1.129210 0.365411 
0.268257 0.371658 -0.542176 
0.582861 1.082861 0.235559 
0.296861 0.666852 -0.478839 
0.561606 0.660712 -0.210456 
-0.912256 0.682213 0.214715 
-0.677011 0.942904 -0.629074 
-1.004814 1.544671 -0.095416 
0.336009 1.958615 -0.567488 
-0.829884 1.511036 0.512722 
-0.599039 1.511947 -0.616411 
-0.291368 2.052424 -0.779801 
0.326552 0.309181 0.460357 
-0.014579 0.053525 -0.503467 
-0.544547 0.746362 0.586205 
0.379550 1.525834 -0.479163 
0.405307 1.480678 0.442077 
-0.815183 0.438183 0.013026 
0.217239 0.831523 0.679037 
0.060983 1.862525 -0.724131 
0.175216 1.262245 0.728902 
0.454215 1.518512 0.373147 
-0.366463 1.558184 0.722362 
-0.936850 0.855888 0.255362 
0.600757 2.053044 0.086970 
0.114303 1.002512 0.637633 
-0.098641 1.007259 -0.700341 
-0.042955 0.053335 -0.313065 
-0.497355 0.053336 0.150319 
-0.610075 1.987977 -0.719159 
0.432315 1.784569 0.440363 
-0.240409 1.760997 0.756487 
-0.452335 0.053369 -0.268254 
0.237964 0.526683 -0.580320 
0.033432 2.053044 0.791083 
-0.558808 1.064395 0.604502 
0.020485 1.664984 -0.800317 
-0.219778 1.816932 0.761206 
-0.857077 1.048147 0.230354 
-0.612332 1.551580 0.705165 
-0.420902 0.632306 0.710330 
0.595811 0.824313 0.041534 
-0.990274 1.266900 0.128868 
0.468729 1.230094 -0.300257 
-1.017617 1.890404 -0.053828 
0.487953 1.642388 -0.476112 
-0.677955 0.053582 0.325219 
0.284888 1.914150 0.607143 
-0.205875 1.581237 -0.824163 
-0.855534 1.327431 0.467469 
-0.499340 1.597243 0.763662 
0.063493 0.495772 -0.613883 
0.166961 1.702276 -0.748155 
-0.978076 0.939746 -0.098377 
-0.677008 0.141872 -0.408724 
-0.000443 0.843233 -0.668339 
