-1.663417 2.765174 0.692904 
0.363146 1.817038 1.186793 
0.641175 2.983046 1.075318 
0.366603 2.116278 1.210029 
-1.122375 2.993475 -1.463585 
-1.328259 2.512687 1.087315 
-1.992990 2.775290 -0.235100 
-1.794160 2.614053 -0.310634 
1.123077 1.466175 0.463228 
-1.948476 3.674814 0.533533 
-1.207207 3.040325 -1.227662 
-1.513115 0.206545 -0.755894 
-1.484224 0.107100 0.088773 
0.979744 0.347051 -0.239730 
-1.676109 3.124427 -1.010213 
-1.434824 2.674135 -0.998955 
-0.077407 2.323635 1.590172 
-0.566927 1.214926 1.338232 
0.782974 0.257368 0.793387 
0.741028 2.178889 0.884291 
1.178621 1.847507 0.053728 
-1.450384 0.668922 -0.622741 
0.436835 1.931244 1.148001 
-0.424634 2.399349 1.620526 
-1.915082 1.948381 0.316138 
-1.190742 0.615968 -0.216409 
0.122386 3.504590 -1.581744 
-1.720353 1.510048 -0.808452 
0.581787 0.908891 -0.841350 
-0.875418 4.025144 1.592378 
0.631863 2.900968 1.296599 
-1.517242 2.210520 1.012302 
-0.937251 1.125664 -1.220382 
-1.263760 0.106990 0.466561 
-0.639695 0.615968 -1.017367 
-0.179119 1.360298 -1.349364 
0.535977 0.319161 -1.068175 
-1.777986 0.727381 0.175657 
0.866961 2.369990 0.724819 
-0.696850 0.106305 0.045342 
0.774893 0.896721 -0.887446 
1.148965 1.738622 -0.440448 
0.715991 2.433587 -0.942862 
-1.528143 3.888403 1.022294 
-1.246962 0.107239 0.895058 
-1.789961 3.908263 0.612559 
-0.662639 0.767062 1.213678 
-1.844332 1.801288 0.336699 
-0.024529 1.882344 1.555307 
0.858734 2.662528 1.070794 
0.872939 0.764472 0.040903 
-1.581569 0.850373 0.327140 
-0.642759 3.933153 -1.521026 
-0.718287 2.739526 -1.598052 
-1.799716 2.226450 -0.019241 
1.046502 2.171584 -0.072914 
-1.252987 2.880038 1.181108 
0.084145 1.271091 1.276557 
0.833983 2.824823 1.106361 
-0.966321 3.169106 1.369100 
-1.160427 1.806095 -1.154067 
1.165172 1.940843 -0.431141 
0.018712 3.944211 -1.620838 
-1.251140 1.202188 -1.027468 
-1.331939 0.450388 -1.023467 
-1.440197 1.526473 0.869231 
0.245597 0.165874 -1.170282 
-1.734183 1.341878 0.056999 
-1.106140 1.191900 -1.134379 
0.953023 0.823804 0.515001 
-0.422937 0.991429 1.324559 
-0.903548 0.637818 1.123062 
-1.900194 1.939419 0.472927 
-1.246431 2.698027 1.170290 
1.027855 0.483942 -0.063359 
-1.695590 0.245695 -0.452849 
-0.589266 1.269576 -1.535781 
0.769094 3.368898 0.980764 
-1.025199 1.120402 1.393418 
-1.682049 1.141355 -0.315440 
-0.021083 0.106648 -0.565656 
0.906513 3.958340 0.867850 
-1.902576 1.013084 -0.033349 
-0.587326 2.224329 -1.599172 
0.229965 1.287335 -1.216338 
0.017531 3.386494 -1.456173 
1.115802 3.157719 0.061504 
0.359931 0.455450 -1.168399 
0.859406 0.912497 0.324477 
0.515218 0.615968 0.291778 
0.597734 1.214322 -0.940004 
-0.833076 2.112040 1.540468 
1.152773 1.735068 0.426964 
-0.361248 2.720217 1.460763 
1.153380 3.719800 0.101107 
-1.500516 0.949040 0.917234 
0.287776 2.158118 -1.257910 
-0.440462 0.106396 0.411160 
-0.772903 1.790328 1.336585 
0.740024 3.065328 1.212102 
-1.660982 3.913936 0.852465 
-1.259314 1.507259 -1.051174 
-0.017286 3.696055 -1.486202 
-1.319168 0.919536 -1.124740 
0.819368 2.953999 0.871099 
0.521431 0.617891 -0.858975 
-1.889754 3.570707 0.111548 
-0.532232 0.106136 -0.028053 
1.103734 3.355145 -0.290191 
0.825670 3.993881 -1.160400 
0.316584 0.615968 0.595979 
-1.418136 0.558621 0.901262 
-0.575677 1.408789 -1.549695 
0.216662 1.852608 -1.268578 
0.492303 1.488448 -1.065198 
0.410357 1.137224 -1.321117 
-0.357463 0.615968 0.415346 
-0.568518 1.879270 1.388347 
-1.336245 1.282685 -0.957445 
0.061092 3.040375 -1.417807 
0.786934 1.521126 0.738060 
0.867018 1.021825 -0.490728 
0.776482 3.880865 -1.205544 
-0.195356 2.833333 1.458286 
-1.884830 0.981113 -0.149794 
-1.870935 3.197912 0.692858 
0.216386 3.393634 -1.545946 
-1.640837 1.986298 0.979432 
-1.190072 0.144054 1.010476 
-1.437042 2.371324 -1.222941 
-0.989824 0.615968 -0.787035 
-0.168404 2.418204 -1.425436 
0.913234 0.890694 0.621854 
-1.406168 3.332848 -1.291300 
0.146816 0.615968 0.776805 
-0.533308 0.372499 -1.272594 
-1.090868 3.479533 -1.332747 
0.902939 1.457125 0.673603 
-1.509832 0.852879 0.523457 
-1.234588 0.496473 -1.109247 
-0.811260 1.007829 1.453032 
-0.584692 0.615968 0.849619 
0.881810 0.121561 0.203426 
-1.257957 0.615968 -0.336246 
-1.801370 0.871619 0.149366 
1.238615 3.114415 0.338654 
-0.919711 1.307142 1.353074 
-1.863736 2.202557 0.377937 
-1.163628 0.106779 -0.103008 
0.625126 2.025349 0.998329 
1.242876 3.301687 -0.342418 
0.955104 1.008351 -0.077437 
-0.681807 0.106996 -0.963164 
-1.706463 1.598304 -0.364296 
-0.825667 2.641057 1.567562 
0.697433 0.242585 0.893327 
-0.395558 1.262995 -1.550181 
0.762248 1.947136 1.125805 
-0.452495 3.511426 -1.513612 
0.318594 3.586118 1.354116 
-1.131681 0.414965 1.064833 
-1.903378 3.587601 0.645925 
-0.959027 0.615968 -0.487211 
-1.804340 2.778898 0.794372 
1.121891 1.838570 -0.544789 
0.595437 2.178233 1.284055 
0.248521 3.731384 1.542591 
0.903651 3.112095 -1.039940 
1.039715 0.750498 0.096987 
0.671994 2.630606 -1.010657 
0.903719 4.072656 -0.885129 
0.121334 0.106969 0.852267 
-0.385429 0.107238 -1.249638 
-1.767046 1.578916 0.734625 
-1.223358 1.030990 -1.029912 
0.764713 2.238281 1.144731 
1.171030 1.608210 0.317308 
-1.138365 0.107085 0.788037 
0.416895 2.616347 1.425980 
-1.859463 3.961231 -0.759028 
-1.755450 0.893672 -0.436735 
-1.645635 0.122088 0.051113 
1.103614 4.003278 0.466601 
0.994891 4.073459 0.957815 
-0.818441 0.727582 -1.163794 
-1.374165 3.478086 -1.321644 
0.965856 1.446690 -0.286585 
1.087156 3.413231 0.379437 
-0.288027 3.284053 -1.497661 
0.018464 3.872385 1.490192 
0.120692 0.824540 1.148097 
0.561631 4.105939 -1.358838 
0.504872 0.106866 0.087083 
-0.773031 0.615968 -0.744243 
-1.089845 4.106050 1.485521 
0.119730 0.615968 -0.471633 
-1.861437 2.647576 0.670461 
-1.394630 4.106088 1.285578 
1.242117 3.903129 -0.409519 
-0.934959 0.615968 0.522746 
-0.786797 2.109911 -1.356406 
0.196876 0.615968 0.023219 
1.187157 1.538879 -0.192488 
-2.002294 2.578812 -0.052536 
-1.781311 0.743342 -0.153702 
-1.475395 1.501076 -1.119561 
0.971123 2.895448 0.599763 
0.862130 0.477793 0.602184 
-0.715370 1.240151 -1.509798 
0.829877 3.141270 -1.125752 
-1.999130 3.216130 -0.284626 
0.395170 1.704354 1.157264 
0.911398 1.032113 -0.362663 
-1.212149 2.676065 -1.193050 
-1.808909 2.608091 -0.773158 
0.597780 0.107063 0.463032 
1.004192 2.560792 -0.450885 
-1.645177 3.660062 1.069728 
-1.283208 0.107028 -0.510650 
0.354851 3.573329 1.491696 
-1.720502 1.155289 -0.031343 
0.084001 0.106504 0.252860 
-1.879913 2.319219 0.362816 
-2.020576 3.128259 -0.058114 
0.942072 3.130356 0.697288 
-1.792768 3.566733 0.860440 
0.527194 1.669167 -1.053581 
-0.292191 1.104530 1.527498 
1.128927 3.950424 0.361937 
0.247128 0.146476 1.144086 
-0.819937 3.152612 1.422523 
-1.309237 4.106088 -1.313261 
0.937338 1.629452 -0.720307 
1.106675 1.651722 -0.551511 
-0.317169 1.748492 -1.585042 
0.000045 1.624681 -1.331696 
-1.760480 0.414446 -0.205896 
-1.766898 2.682912 -0.851347 
-1.116908 1.400058 -1.146675 
-1.574984 2.788813 1.107197 
-1.777255 3.190605 -0.510106 
-2.019108 3.425770 -0.185864 
0.864064 3.839386 -1.114434 
0.642469 1.019412 1.143780 
0.204189 0.107167 1.027946 
1.027980 2.837492 0.439063 
0.192681 3.685410 -1.418677 
-0.304644 0.106350 0.364112 
-1.836589 2.750429 0.016142 
0.979565 0.211402 0.217637 
0.630646 3.147989 -1.100949 
1.160207 3.074751 0.598011 
-1.252539 4.097832 1.414719 
-1.518234 3.726035 -1.206425 
1.126622 3.313692 -0.692854 
-1.192315 2.486917 -1.404649 
-1.501773 1.707258 -0.810624 
0.946672 0.720547 -0.505717 
-1.874994 3.327382 -0.070257 
0.159402 2.214026 -1.522259 
-1.347859 1.634507 1.242562 
-1.345517 0.417538 -0.869665 
0.646947 2.326360 1.006036 
-0.739380 0.615968 0.787724 
-1.777570 3.839664 -0.896256 
0.374408 2.063616 -1.200815 
-1.643423 0.971669 -0.347667 
-1.424493 1.055563 0.995839 
-1.462672 3.061721 1.008608 
0.901736 0.184888 -0.427757 
-1.612813 0.283140 0.542305 
-1.120820 3.244105 1.298445 
-0.565032 1.756545 -1.575023 
0.146958 0.615968 -0.886332 
1.113912 3.095609 0.706915 
-0.818276 1.117559 1.268075 
-1.769730 3.938408 -0.662160 
0.831571 0.940796 0.474754 
-0.909458 2.403028 1.487493 
-1.608063 4.106088 1.062310 
-0.158499 2.744868 1.600676 
-0.969459 0.892870 -1.113875 
0.947782 0.542486 0.476822 
-0.764180 0.897465 -1.204403 
-1.335124 1.281075 0.958465 
0.632700 2.183853 1.006554 
0.738221 3.814909 1.060021 
-0.677507 2.793008 1.608420 
0.948016 1.338097 0.325939 
-1.366852 0.663038 1.002454 
0.630075 1.532651 -1.209795 
0.915528 1.333743 0.725455 
0.679083 3.300899 -1.070002 
0.465343 1.808244 1.116504 
0.970340 3.068180 -0.950063 
-1.346271 3.961183 1.355217 
-1.362034 1.958588 -1.001902 
0.961906 2.497446 0.552575 
-0.218760 0.685546 -1.234586 
0.036073 2.047984 -1.551674 
-1.584753 2.129401 0.740765 
-0.284836 0.469736 1.400412 
-1.122145 0.615968 -0.053629 
-0.680978 0.615968 0.484558 
-0.520709 1.752075 1.579227 
0.370011 2.935217 -1.275485 
-2.006772 2.679479 0.024046 
-1.827870 2.628936 0.025029 
0.784086 1.684564 1.077903 
-0.843996 2.267882 1.544894 
-1.877730 3.849216 -0.326699 
-1.092904 0.107116 -0.870660 
-0.744406 0.794482 1.370957 
0.892633 1.453643 -0.524474 
-1.703971 1.240043 -0.792245 
-1.690306 2.991541 -0.675707 
-1.664563 1.282848 0.419828 
1.048706 3.280441 -0.476296 
-0.456406 4.023686 -1.548773 
0.399833 0.863336 0.984867 
-0.182737 2.383904 1.539187 
-1.616651 3.523765 -0.869362 
0.919969 1.396347 -0.874190 
-1.819006 1.091171 -0.519591 
-1.755784 3.056427 0.540506 
0.597556 0.414693 1.010450 
0.978742 2.103883 0.726735 
-0.206327 0.276634 1.251069 
-1.719639 1.329877 0.201800 
1.081144 2.932662 0.247246 
0.312549 3.593410 -1.511349 
-1.919293 2.315983 -0.476147 
-0.171289 0.916431 1.261116 
-0.067000 0.495430 1.369639 
0.540244 1.367221 1.204364 
-1.619252 0.157000 -0.420921 
1.098021 2.131090 0.649445 
1.126596 2.400007 0.616499 
1.039898 0.878840 0.034460 
-1.484012 1.334504 -0.787428 
1.010646 2.207579 0.780516 
0.901214 2.457931 -1.005903 
-1.481125 0.783293 -0.576402 
0.605105 3.374114 1.333549 
-0.028210 0.736295 -1.372663 
-1.823790 1.356431 0.570497 
0.886635 1.598741 -0.563795 
-1.792521 2.237823 -0.153930 
0.358167 2.662910 1.260631 
-0.060346 2.244354 -1.392823 
0.090030 3.566753 1.593275 
-1.096939 2.076834 1.434401 
-0.573628 0.282097 1.269467 
-1.177738 2.951589 1.432245 
-2.023930 3.240679 0.046874 
-0.045600 4.106088 1.604641 
0.481304 0.884321 -0.924729 
0.496878 0.615968 -0.505011 
0.060077 0.987439 -1.459024 
0.478842 1.665990 -1.209203 
0.479350 1.532729 1.080146 
-1.764516 1.840092 -0.148552 
-0.988797 0.751180 -1.276224 
-1.636805 1.971960 -0.982933 
0.263815 0.803712 1.074342 
-0.563096 0.615968 -0.633020 
-1.698749 4.057141 0.810221 
-1.876186 1.019979 -0.257843 
-1.831647 1.919858 -0.652067 
-1.471497 1.539899 1.055487 
-1.649774 2.111808 0.978772 
-0.440258 1.035780 1.529571 
-1.865794 3.480439 -0.255250 
0.217159 2.580664 1.518541 
0.392470 1.038570 1.326494 
-1.254340 1.424873 1.292189 
1.228645 2.222214 -0.182224 
-1.809674 2.412586 -0.103967 
1.122377 1.518855 -0.480348 
-1.668225 1.386182 0.871912 
0.371105 0.955469 1.072986 
-0.770548 0.106527 -0.376137 
-1.617303 0.270268 0.351564 
-1.614626 2.320286 -0.718176 
-0.190277 0.615968 -0.731160 
0.931574 0.975283 0.183437 
-1.756325 0.318454 -0.109353 
-1.776188 3.422299 0.558247 
-0.887708 1.963880 -1.448213 
0.661305 3.254075 1.286278 
-1.251185 1.993213 -1.339728 
-1.868561 3.971978 -0.402258 
-2.041749 3.979548 0.042296 
-1.162585 1.288445 -1.104858 
0.956512 1.459806 0.331000 
-1.132628 2.093842 -1.196781 
-1.468060 0.951488 -0.915719 
-0.091798 0.615968 -0.161902 
1.225665 2.609873 0.018652 
-1.118865 0.615968 0.886742 
1.147790 2.331986 -0.550767 
0.677663 3.947222 -1.132520 
-0.675501 0.648777 1.377414 
-1.245971 2.560307 1.158751 
-1.365457 0.957973 -0.853334 
1.166902 2.408248 0.507004 
0.827545 0.664505 0.739488 
-1.125613 0.615968 -0.824963 
-1.250342 3.354228 1.223423 
-1.863630 2.932794 0.689592 
-0.580620 0.106402 -0.368496 
0.319936 0.615968 -0.696226 
0.440417 0.107197 0.893525 
0.299148 1.046287 1.155385 
0.958817 3.882345 -1.000953 
0.999960 2.083143 0.344805 
-1.529528 1.301379 0.714074 
-1.570362 0.773837 0.761136 
0.059557 2.661363 -1.390773 
0.264240 2.148061 -1.477912 
1.007709 0.775842 -0.320214 
-0.398288 3.069803 1.484682 
-1.561281 0.107190 0.188031 
-1.157881 1.554707 -1.133346 
-1.700944 0.867732 -0.329698 
0.393173 0.228733 -1.154325 
0.237371 1.996288 -1.270621 
-1.160893 0.106805 -0.237176 
-0.170415 2.233944 1.535612 
0.475298 2.643132 -1.392799 
-1.726582 1.295309 0.762696 
1.077322 3.531176 0.803080 
-0.267809 2.911289 -1.638216 
-1.172694 2.776390 -1.427995 
0.363561 3.142181 1.474605 
0.700128 1.819348 -0.893455 
-1.301769 0.846334 -0.838648 
0.963992 1.179898 0.178837 
1.131045 3.485162 0.164371 
0.801088 2.188707 -1.102771 
0.952005 1.303447 -0.297102 
0.545935 2.979943 -1.352809 
-1.000316 2.663711 -1.315282 
-1.456914 2.604718 1.219089 
0.832577 3.830148 0.953450 
0.484581 1.667295 1.088510 
-0.386304 0.106577 -0.595857 
1.113880 3.982374 0.756100 
-1.811124 2.685699 0.249506 
0.609151 2.663537 1.074991 
0.879260 0.992681 -0.869954 
1.059239 2.967915 0.363711 
-0.799418 0.106423 0.123835 
-1.899121 2.437923 0.395115 
0.854278 0.152240 0.452024 
0.363059 1.438171 -1.154000 
0.560613 0.982265 -1.180505 
-0.347428 4.106088 1.646632 
-0.842957 1.318195 -1.430113 
0.030904 0.615968 0.712520 
1.101003 3.048203 0.161632 
0.587888 2.032420 -1.270439 
-1.642741 0.643710 0.614800 
0.960872 1.860734 -0.869507 
0.845362 3.764090 -0.930383 
0.835128 0.305491 -0.295021 
0.378946 0.615968 0.965934 
-1.006740 0.106686 -0.308203 
-1.359209 3.615700 -1.336611 
-0.782259 0.468415 1.341820 
0.667711 1.752697 -1.197127 
-1.378392 0.993894 1.149712 
0.935737 1.153603 -0.314779 
-0.283881 0.615968 0.511580 
-0.181545 3.236701 -1.639589 
0.773081 0.668470 0.480645 
0.089120 0.494554 -1.262954 
-0.203711 0.615968 -1.003953 
1.005727 2.954546 -0.891147 
0.517132 2.276201 -1.268192 
-1.630823 3.540495 -1.082876 
1.242345 2.496688 -0.175896 
-1.158160 3.297643 -1.279926 
0.259437 2.310794 -1.284994 
0.982259 3.222012 0.630238 
-0.891856 0.620013 -1.127417 
0.417173 2.999873 -1.441073 
1.171022 3.954371 -0.056373 
-0.285177 0.810381 1.246630 
-0.880268 3.826751 1.586349 
-0.105997 3.340524 -1.631437 
0.048724 1.626413 1.520733 
-1.089545 1.455430 -1.393185 
0.906832 2.908936 -0.730940 
1.103789 2.805033 0.705586 
0.955251 0.896766 -0.582522 
0.808595 0.623423 0.376759 
0.995579 2.824623 -0.898773 
-1.570405 2.979472 0.869424 
-1.714970 0.487695 -0.019366 
-0.691141 0.615968 0.987636 
0.501602 2.379485 -1.140534 
-0.259284 1.887711 -1.397410 
-0.389770 3.594239 1.521267 
-1.819041 2.610240 0.152437 
-0.471968 3.253725 -1.648727 
-1.883675 3.538434 -0.150889 
-0.704385 1.148814 1.305426 
0.552895 3.980236 -1.388415 
0.161317 1.495872 1.265200 
-1.895801 3.988038 -0.286123 
-0.965307 0.107130 -0.978672 
0.241127 1.098762 -1.192483 
-0.316594 2.360194 -1.434125 
1.165049 2.958687 -0.574125 
-1.311109 0.306546 0.829477 
0.418286 0.162362 -1.056063 
-1.535599 0.619312 0.435433 
0.383316 0.107202 -0.948811 
0.266435 3.094742 1.517973 
0.103375 0.617592 -1.324857 
-1.574870 2.197969 -0.765895 
-1.643491 2.209214 -0.993896 
0.829595 1.071610 -0.588277 
0.019410 0.106865 0.788707 
-1.682927 3.181274 -0.717647 
-1.696235 1.920242 -0.895242 
-0.329075 2.053748 1.604432 
0.015598 3.739990 1.481573 
0.876395 3.470364 0.852767 
-0.757553 2.934778 -1.425823 
-0.164963 2.018329 -1.396258 
-1.671242 1.573514 -0.892363 
-1.382371 0.107096 0.460246 
0.171023 2.443826 -1.334627 
0.729223 1.598188 0.831687 
0.629357 0.615968 0.196882 
-1.805017 1.526523 -0.332274 
-1.857376 1.422805 0.464961 
-0.648376 2.770153 -1.439114 
-1.547014 0.256317 0.760020 
-1.287975 3.965665 1.247797 
0.678670 0.107055 -0.193602 
1.075080 3.865967 0.823243 
-0.578556 0.477631 -1.356133 
-1.899906 3.834602 -0.193803 
-1.614038 1.973551 -0.667029 
-1.746209 2.825792 0.520557 
-1.817203 2.471724 0.011859 
0.207922 0.106599 0.209959 
0.799581 3.294855 1.164050 
0.344082 1.479509 1.394290 
1.171646 1.354276 0.198311 
-1.141837 0.554421 1.145371 
-0.283240 3.309218 -1.650434 
-0.286964 0.615968 -0.362007 
-1.674414 2.448672 -0.622341 
-0.312949 0.106111 0.122369 
-1.514696 1.674176 0.788511 
-1.614778 2.089988 -1.008410 
-0.819524 2.377751 -1.366132 
1.014950 2.364626 -0.832951 
-1.071638 0.615968 -0.533459 
-0.611267 0.139888 1.272192 
-0.848310 2.653041 -1.561156 
0.981424 1.276937 -0.059699 
-0.590208 2.150960 -1.404517 
0.971375 1.584128 -0.308217 
0.843326 0.795333 0.730899 
0.663601 3.720747 1.299562 
1.080857 3.859418 -0.504927 
-1.074790 2.293094 1.247793 
-0.957365 2.468720 -1.476156 
1.056952 2.845270 -0.798721 
0.355937 0.106910 -0.570141 
-2.025345 3.807306 -0.214884 
-0.314875 2.600006 -1.450956 
-1.672336 2.008894 0.551620 
-1.998659 2.636029 0.144122 
0.939560 1.617766 -0.874553 
-1.512239 1.301201 -0.944145 
0.991262 1.946026 -0.784861 
1.107736 3.765611 -0.396979 
0.364601 1.613062 1.393621 
-2.033310 3.975157 0.171694 
-1.504971 4.093595 -1.075149 
-1.655578 1.308256 -0.878472 
-0.101530 0.615968 0.419045 
-0.405755 0.756948 1.246747 
-1.623047 3.369163 -0.842349 
-1.764073 1.928720 0.205343 
0.181517 0.615968 0.627613 
0.106529 3.002565 -1.572173 
-1.742202 2.105320 0.842464 
1.015123 3.846646 -0.662218 
1.222847 4.093847 0.482956 
-1.916056 3.179144 0.584042 
0.892414 1.877216 0.599979 
-1.046003 3.256320 -1.339161 
-1.709867 2.764972 -0.943313 
0.006753 3.383739 -1.610085 
1.141474 1.321839 0.074224 
-0.105607 3.139428 -1.625933 
-2.028914 3.929788 -0.206130 
1.126917 2.040190 0.567275 
-1.937499 2.920781 0.385937 
-0.179177 0.615968 1.101103 
0.597897 2.650995 -1.310746 
-1.945106 3.683115 -0.543140 
-0.321807 0.615968 -1.224651 
-1.976384 3.083700 0.377581 
-1.876680 3.698745 -0.280820 
0.059232 3.431806 1.598860 
0.854053 0.907433 -0.333121 
0.401493 0.106759 0.022731 
1.120870 3.225665 -0.050574 
-1.732418 2.521673 0.895540 
-1.508692 0.637418 -0.835889 
0.991314 2.766988 0.528128 
0.889544 1.502716 0.540458 
-0.648808 1.262303 -1.327728 
-1.512005 1.530378 0.774285 
1.162625 1.190946 -0.151671 
-0.848864 2.396689 -1.549777 
0.212533 0.684795 -1.096924 
-1.597817 1.383661 -0.954783 
1.167242 2.187038 -0.469484 
-2.034056 3.675657 0.072983 
0.461722 0.839224 -1.139708 
0.882014 3.642706 0.865098 
0.196843 0.107054 -0.904268 
-0.801414 0.107054 -0.977994 
0.721404 2.149040 -0.904797 
1.118868 2.708163 -0.664278 
-0.644402 0.106529 -0.476427 
-0.273909 1.523753 1.372306 
1.178249 3.085034 -0.550746 
-0.367611 3.386482 -1.507226 
-1.937819 1.777691 0.271709 
-1.102548 0.379656 -1.054486 
0.463751 0.154321 1.008324 
0.021146 1.747238 -1.334556 
0.159254 1.395941 1.467512 
-0.112642 0.106799 0.773899 
0.243034 2.956697 -1.341912 
0.972068 2.498468 -0.912476 
-1.805679 3.746518 0.847177 
1.070310 2.536896 -0.109005 
1.046378 3.574988 0.540889 
-1.888561 3.984139 0.320695 
-0.603147 2.557783 1.431514 
-1.442384 1.625196 -0.877825 
-1.531661 0.354656 0.661780 
-1.752184 1.813568 0.225994 
0.431323 1.748921 -1.135591 
0.702627 1.891839 -1.177312 
0.782464 1.058239 1.007189 
0.444211 0.742439 0.941164 
0.315707 2.452441 -1.266579 
0.453926 4.012569 -1.450155 
-0.366258 3.126667 1.648388 
0.899712 3.260462 -1.050943 
-0.898668 3.118119 -1.562379 
-0.368343 0.615968 -0.164181 
1.013240 0.672393 0.261359 
-1.283136 1.092351 1.237552 
1.235875 2.722139 -0.015437 
-1.702103 1.731976 0.411965 
0.749374 4.046196 1.235914 
0.497279 4.106088 1.390729 
-0.437648 2.962751 -1.476039 
-1.777362 1.802155 0.745392 
0.600646 0.773239 1.029950 
0.999730 2.108092 -0.353525 
0.720112 0.107174 0.459700 
-0.867042 0.615968 0.206779 
-1.214905 1.013104 1.033226 
-1.609818 1.077284 0.517763 
-1.381078 2.468044 1.274593 
0.140889 0.758232 -1.320063 
0.310582 0.281591 -1.222800 
-1.460751 1.403738 -1.052947 
0.477084 1.224121 -1.051290 
-0.966802 2.428434 1.312258 
-0.267391 3.859798 -1.536360 
1.206522 3.260405 -0.478365 
0.360687 3.207489 -1.302183 
-0.844929 0.488868 1.240101 
-0.084948 3.495552 1.632171 
-0.809340 0.651095 1.341290 
-2.003556 3.526198 0.308758 
-1.443730 1.159614 1.061311 
-0.968291 1.443574 -1.233975 
-1.902085 2.596300 0.566650 
1.073460 1.779805 -0.653633 
-0.446769 3.294840 -1.498814 
-1.864112 2.447992 0.645064 
0.891993 3.732769 -1.078961 
-1.226618 1.575745 1.323826 
0.479555 2.015837 1.268654 
1.040212 3.436981 0.530244 
-1.186145 3.871220 -1.308689 
-0.921031 1.690628 -1.275263 
-1.364769 3.547491 1.330658 
-0.473319 0.615968 0.300597 
0.136550 0.210711 1.272546 
-0.711247 3.454281 -1.473701 
1.281818 3.589189 0.123909 
0.030570 0.254425 1.302435 
-1.758992 1.994506 -0.265952 
-1.538057 2.434287 1.030100 
0.189688 0.615968 -0.631609 
-0.978615 0.106602 0.137456 
-0.077730 2.898794 1.444005 
0.620085 0.919675 1.082137 
-1.861991 3.176529 -0.711177 
0.917463 1.419614 0.451212 
0.888454 0.408085 -0.322372 
1.105003 3.853772 -0.766706 
-1.265691 1.575831 1.052373 
-1.847390 2.249554 -0.659193 
0.502504 3.590367 -1.409666 
-0.388349 2.343434 -1.619141 
-1.171263 2.225378 -1.183306 
0.873991 1.315359 0.539968 
-0.822739 1.999261 -1.337219 
0.912926 2.447737 0.650795 
-0.426068 0.615968 0.511650 
-1.158638 1.889331 -1.388621 
0.358103 0.106984 0.678989 
-1.756307 1.422027 0.729726 
-0.238537 0.106809 0.815797 
-0.535207 0.106813 0.815701 
0.120099 0.249104 -1.297224 
-1.883208 2.231202 0.569924 
-0.219776 0.615968 -0.166916 
1.294245 4.088558 0.088031 
-0.289472 0.615968 0.293212 
-1.316137 3.242881 1.355489 
-1.643738 0.130258 -0.181007 
0.692457 0.611118 0.914256 
-1.135661 3.149055 -1.281773 
-0.568502 3.389775 -1.495424 
0.195303 2.211631 -1.306262 
-0.525675 1.690477 1.379437 
-1.643657 4.095752 0.909397 
-0.853552 2.974914 -1.571343 
-1.068881 0.626331 1.225857 
-0.218858 3.853724 -1.658438 
0.623073 1.979562 -0.995723 
-0.286327 2.975983 -1.476215 
-0.994379 0.615968 -0.929006 
-1.918481 2.635278 -0.370976 
0.066894 0.303818 -1.167397 
0.181799 3.012474 1.547833 
-2.029387 3.420758 -0.024478 
-0.698910 3.446492 1.624738 
0.400692 0.615968 0.470685 
0.943918 2.183609 -0.926123 
-1.439015 0.756610 0.648687 
-1.321907 3.731822 -1.366479 
0.041513 1.215606 -1.489462 
0.682222 0.230574 -0.899693 
0.788492 2.991322 -0.916133 
0.664342 0.107067 0.302563 
-1.340753 1.750422 1.257874 
-0.846094 0.106467 -0.115506 
-1.685833 3.353716 -0.737631 
0.289071 0.615968 0.114412 
-1.619570 0.885028 0.187859 
-1.841054 1.206559 -0.486351 
-1.707797 1.041587 -0.086376 
0.986942 1.347277 0.057154 
-1.576770 2.438864 -0.795116 
0.979986 0.517488 -0.289059 
0.842160 1.406226 -0.623856 
0.781100 0.615968 -0.389173 
-1.852018 2.303194 0.655174 
1.277417 3.267115 0.032397 
1.003816 3.900174 0.694085 
0.447676 2.077698 1.379878 
-0.743629 3.834662 -1.492793 
-1.415401 1.832093 1.203633 
-0.312839 0.615968 -0.545121 
-0.443654 1.020412 -1.528155 
0.819898 3.753730 1.158836 
0.916426 4.092782 1.057977 
-0.957872 1.350028 1.230807 
1.069023 1.421049 -0.603761 
0.985286 1.416075 0.150487 
0.741061 1.740485 0.832949 
-0.841047 0.615968 -0.560818 
0.567760 1.377535 0.987253 
1.219967 2.008216 0.164468 
0.610351 0.649458 -0.758734 
-1.966846 1.900132 -0.104058 
-0.918756 2.122208 -1.310276 
0.659688 4.106088 -1.209156 
-0.562398 3.436491 -1.645317 
0.524716 0.730170 -1.092801 
-0.600341 1.634637 -1.365061 
-0.472577 0.615968 1.169464 
0.686455 1.481901 -0.871320 
-1.765716 3.370674 -0.575916 
-1.296377 3.331804 -1.372563 
-1.347176 1.809976 1.001112 
-0.217763 3.903872 1.534568 
1.256820 2.789952 0.139529 
-1.119077 0.242726 1.178992 
-1.641621 1.053915 0.861620 
0.637875 1.553834 0.934997 
-0.526755 3.413711 1.648194 
-1.628521 1.644856 0.584683 
-1.051571 2.905650 1.308643 
-0.671584 1.527467 -1.543558 
0.259092 1.679504 -1.449708 
-0.473740 2.168488 -1.418941 
-0.860978 1.483841 1.283024 
1.049158 1.667139 -0.655013 
0.817809 2.816440 0.856936 
-1.874181 1.688924 0.313700 
1.068544 1.427994 0.606227 
-1.917991 2.250714 -0.339624 
0.988032 1.512393 -0.191132 
-0.737411 3.581860 1.619417 
-0.689092 3.993745 1.639263 
-0.973119 0.302020 1.259235 
1.005750 2.574880 0.865785 
-0.226348 2.755186 -1.628653 
-0.825597 0.975441 -1.400652 
-1.265066 4.092482 1.280470 
-1.233018 2.093328 -1.127463 
1.284273 3.489163 0.001593 
-1.260279 3.202505 -1.203372 
-0.858042 2.215043 -1.538040 
-1.025474 0.343498 -1.240606 
0.163446 3.168829 1.559509 
-0.193389 3.843075 1.655689 
-1.595712 4.103358 -0.986332 
0.478577 1.208278 -1.173493 
-0.867141 3.570726 1.437848 
-0.775908 0.615968 -1.059034 
-1.108441 2.256703 -1.437885 
-1.239283 3.044221 1.399276 
-1.384554 3.014370 1.297649 
-0.030312 4.036798 -1.513102 
-0.911469 0.106566 0.232492 
-1.749256 1.946051 0.814450 
-1.790607 2.098215 -0.021799 
0.277340 2.517053 1.292082 
-1.326702 0.271799 0.993021 
-1.285871 3.905411 -1.244223 
-1.910521 3.060318 0.589899 
-1.930215 2.646404 -0.489621 
-0.555209 3.635187 1.513559 
0.518626 1.871622 -1.079653 
-0.939117 0.107014 -0.861023 
-0.001707 2.129798 1.370369 
-1.149714 0.615968 -0.445628 
-1.289252 3.781572 1.231422 
-0.000803 2.620889 -1.587129 
-1.109742 0.106723 0.086102 
-1.835277 1.477687 0.568894 
-1.729054 3.547218 0.956643 
-1.520989 2.705692 0.903424 
-1.192191 3.981937 1.313802 
-0.966460 1.585754 -1.246410 
-1.560876 1.764006 -0.729303 
-0.173175 0.615968 -0.456456 
-0.767320 0.625350 -1.177457 
-1.464909 1.623309 -1.140291 
-0.336343 2.614131 1.630205 
-1.737239 2.656077 0.897186 
-0.749672 1.774178 -1.342486 
-1.946781 2.936647 -0.469870 
-1.850262 3.588835 0.366035 
1.125877 1.090985 0.330000 
-0.839133 0.498602 -1.256990 
-1.163239 0.667255 1.170035 
-0.824895 0.301130 1.170965 
-0.760607 0.106417 -0.204492 
-0.920780 4.085695 -1.457606 
0.822314 4.084361 -0.995843 
-2.010798 3.684982 -0.287551 
-0.914624 1.825545 1.288858 
-1.512604 2.542381 -1.164101 
-0.592801 0.615968 -0.183737 
0.487981 1.372919 -1.057189 
0.765158 0.288026 0.569928 
-0.788235 3.372631 1.601898 
-1.460792 2.945240 1.231683 
-0.567829 1.614688 -1.565684 
-1.605824 0.107222 -0.064611 
-0.793513 1.611670 1.520618 
-0.395255 0.421535 1.401599 
-0.027475 2.563730 1.408290 
-1.898572 1.137233 0.214707 
-1.966397 2.058152 -0.202953 
1.015426 0.497633 0.201874 
-0.530254 0.824773 1.240506 
-1.917793 2.471569 -0.415244 
-0.595862 3.174935 1.634538 
-1.125851 0.106821 -0.369619 
1.019905 2.567991 0.401363 
-0.080603 4.058321 -1.644337 
-0.621874 0.106979 0.963801 
-0.503206 0.615968 0.145938 
-1.376014 3.462479 -1.132967 
-0.074514 0.958196 -1.273362 
1.281406 3.843955 -0.185190 
0.818863 0.842973 -0.782046 
-1.924632 1.383946 0.169756 
0.815659 0.806463 0.381986 
-1.554787 3.898097 -1.177135 
-1.934816 2.552317 0.427479 
-0.550900 3.732057 -1.653572 
-0.681757 0.889399 1.412934 
-1.078868 0.924568 -1.072804 
-0.959375 2.731311 -1.500119 
1.148501 2.504078 0.572033 
-0.171364 2.860999 1.600182 
-0.294532 3.163460 -1.646958 
0.770363 1.861655 0.807256 
1.100711 0.973189 0.342048 
1.120845 3.463673 0.715134 
0.316551 2.783839 1.483749 
-1.617725 0.767727 0.098818 
-0.684968 3.154856 -1.619256 
-1.848539 2.386902 -0.672320 
-1.735375 2.188780 0.415213 
0.598497 3.411296 -1.339502 
0.610627 3.760897 1.174702 
-1.008136 0.732105 1.265312 
0.749200 0.804232 0.870991 
-1.525428 0.516351 -0.803695 
-1.837281 3.739114 0.450134 
-0.750426 1.570440 -1.326772 
-0.336697 2.659313 -1.631772 
-0.973707 0.106672 0.341629 
0.232994 2.255290 1.292622 
-1.391258 0.615968 0.392091 
-0.216519 0.502672 -1.314396 
0.927924 1.710505 -0.484283 
0.900394 0.911261 -0.014860 
-1.906094 3.708695 0.646386 
-0.684540 1.416430 -1.331651 
-1.789631 0.758784 0.054333 
0.328976 2.707511 -1.279787 
-0.965373 0.129895 -1.137575 
-1.172987 2.444907 -1.200932 
-1.235541 2.909023 -1.396004 
-1.490985 1.002551 -0.720159 
1.212330 2.141473 -0.267768 
-2.017773 3.001301 -0.028516 
-0.593112 0.615968 0.218215 
-1.775517 2.248475 -0.276274 
-0.021934 3.503465 -1.620054 
-0.694546 2.816351 1.432377 
0.441965 1.582381 -1.113037 
0.878032 3.466813 -0.850046 
-1.964781 2.296585 0.283953 
-1.831282 3.110636 0.303043 
-0.849351 2.619353 1.374098 
1.027017 2.810789 -0.435826 
0.991919 2.184611 0.400369 
0.763128 0.615968 -0.265597 
-0.451447 0.107009 1.020554 
-1.727913 1.660409 0.814400 
0.462941 2.240542 -1.156349 
-1.963597 4.106088 0.258450 
1.111507 3.999436 -0.439586 
-0.136256 1.332858 -1.475001 
-1.146932 1.052662 1.323659 
0.792021 0.340366 -0.778856 
0.117386 4.018321 -1.595363 
-1.833912 1.496633 -0.577067 
0.546780 0.106971 -0.352740 
-0.355974 2.782334 -1.636695 
-0.231953 0.107113 -1.117977 
0.696783 1.658208 1.162437 
-1.958804 1.743559 -0.049845 
1.009581 3.571984 0.917782 
-1.535300 3.310149 1.176391 
-0.675290 2.151211 1.581031 
0.945534 3.439425 -1.001728 
-0.815269 0.615968 0.464570 
-0.194491 1.491719 -1.362163 
0.814409 0.747422 -0.377670 
-0.119067 0.106231 -0.010345 
1.016656 0.868870 0.351970 
1.163584 3.823555 0.006701 
0.042682 4.103966 1.515628 
0.557902 3.110619 -1.345377 
-1.973540 2.807947 0.348024 
-0.069993 2.447348 1.594896 
-1.025781 0.646180 1.057108 
0.049469 0.877527 -1.183878 
0.646574 0.615968 0.705234 
-1.776793 1.321558 -0.671321 
0.363983 0.997610 -1.337874 
-0.535806 3.846215 -1.657580 
0.798953 3.761714 -1.180907 
-1.577473 2.404603 0.789385 
-1.682128 2.148789 -0.553879 
-0.441165 0.833252 -1.248600 
-1.776300 2.993359 0.856941 
1.104729 3.012211 -0.092927 
-0.037403 0.615968 -0.491962 
-0.583427 3.612027 -1.647717 
-1.717332 0.473530 0.403467 
-1.815543 3.439593 0.451044 
1.086144 2.711176 -0.017572 
-1.468891 3.830419 -1.255402 
-0.251907 1.086549 1.334868 
-1.324128 2.644036 1.325794 
-1.740440 1.460832 0.109046 
0.632566 3.181433 1.102317 
-0.485784 2.539357 1.624636 
-0.077192 0.107109 1.082879 
0.670082 3.006733 -1.050420 
-0.586540 1.063516 1.518841 
0.219175 3.129900 -1.537477 
-1.646732 2.380201 1.002735 
-1.233249 0.615968 -0.525938 
-1.708289 1.619370 0.363598 
0.453395 0.715398 1.146505 
0.473665 3.166150 -1.414379 
-1.878737 3.382109 0.071573 
0.890069 1.127991 0.705475 
-1.115921 0.106859 0.466121 
0.107720 0.106659 -0.476976 
-0.132520 3.586516 1.501609 
-1.114781 0.470277 -1.139381 
-0.858168 0.106741 -0.584052 
-0.375585 1.240842 1.548999 
-1.801208 2.873065 0.359239 
-1.357696 0.615968 0.624143 
1.141843 1.679628 0.040132 
0.985112 3.745076 0.706457 
-0.548979 2.265659 1.418621 
-1.590681 3.336457 -1.119251 
-1.778715 0.966429 0.418603 
0.082289 0.106757 -0.626112 
-1.955491 3.408025 0.487614 
-1.315831 0.615968 0.291595 
-1.827878 1.539638 0.322804 
-1.247961 1.283578 1.282311 
0.683830 1.894448 1.195089 
-1.566657 0.502661 -0.662137 
1.028093 2.053281 0.189546 
0.436345 1.477267 1.312564 
-0.393683 2.491569 -1.444515 
-0.548837 0.107062 -1.062950 
-1.751354 1.605350 0.107424 
0.844709 0.116937 -0.346083 
-1.782836 0.942372 0.294537 
-1.752146 2.536985 0.444255 
-1.829298 3.920798 0.813561 
0.898475 1.445727 0.911286 
-1.896881 3.623198 -0.022864 
1.217956 3.189211 0.434128 
-0.288263 0.296796 1.336271 
-1.460638 1.403366 0.829190 
-1.332525 1.622570 -0.996320 
0.831506 2.324469 1.079594 
-1.680981 1.494167 0.421773 
0.429777 1.296036 1.209065 
-0.441653 2.210671 -1.611049 
-1.809694 1.676903 0.662953 
0.450302 3.264192 -1.252498 
1.202514 1.735075 0.164605 
1.266968 3.914191 -0.295180 
-0.012353 0.615968 -0.289881 
-1.937529 1.493784 0.133703 
0.857975 3.230497 0.850172 
-0.062149 1.429509 -1.332450 
1.077091 0.909179 0.169322 
-1.532987 3.164844 -1.173319 
-0.540530 2.291345 -1.421240 
-0.602533 1.512214 1.355674 
0.574329 3.681545 -1.365049 
-0.070008 0.203754 -1.329714 
-1.917577 1.314195 -0.182236 
0.500860 2.867943 -1.183277 
0.326618 4.097245 1.511541 
-1.630051 0.277412 -0.010685 
-1.346044 0.615968 -0.577445 
0.950805 1.427462 0.788828 
-1.991515 2.324535 0.031274 
1.029397 1.543401 -0.649368 
-0.902595 3.271145 -1.402337 
-1.249875 0.615968 0.026115 
0.815816 1.736181 -0.721215 
0.837744 1.992182 0.721236 
-1.200461 0.615968 0.422900 
-1.564535 0.615968 -0.104911 
-1.746110 1.675607 0.201050 
0.533731 4.083261 1.263928 
-1.669256 3.269252 0.755617 
-0.577554 2.722281 1.621863 
-0.381599 3.677832 1.662405 
-1.639019 2.406807 0.685269 
-1.537933 1.487091 -0.959369 
-1.701075 2.555095 0.581405 
-0.710356 2.310461 1.581495 
0.592948 2.471123 -1.305470 
-1.491851 0.712472 0.549442 
1.098006 3.152656 -0.743131 
-1.098987 0.615968 -0.296464 
0.890463 0.901177 0.100338 
-1.792378 3.179529 0.465443 
0.571093 0.676431 0.808618 
0.408630 4.005112 1.474187 
0.753416 2.988842 -1.196072 
0.713289 0.635785 0.599733 
1.121618 3.319169 -0.143638 
-1.722012 2.933059 0.599028 
0.878169 1.279238 -0.915894 
-1.344400 0.615968 0.153748 
-1.416506 3.243818 -1.074189 
0.881006 1.735971 -0.600351 
-0.712443 3.178058 1.614211 
0.953248 1.963183 0.893371 
0.957394 2.230246 0.511360 
-1.790945 3.601284 -0.864826 
0.438518 2.763567 -1.219015 
0.994931 3.521019 0.652372 
-1.647025 2.409660 -1.004580 
1.246902 3.233745 0.315081 
-1.710503 2.372987 -0.915159 
0.442554 1.914145 -1.371820 
-1.682842 1.770963 -0.897684 
-0.209143 2.124442 1.537658 
-1.359536 2.705785 1.076471 
1.159770 2.173085 0.492147 
1.047797 3.956591 -0.608457 
0.676959 2.586318 -1.245485 
-1.784010 1.197303 -0.314930 
0.639229 0.493516 0.880590 
0.544550 0.619399 -1.068205 
-1.517681 2.339874 1.146338 
-0.564070 1.914928 -1.585231 
-0.705517 2.242206 -1.579282 
-1.805519 1.915882 0.708322 
-0.944450 0.921618 1.334331 
0.626973 0.969904 0.853127 
-0.112605 0.359074 -1.362271 
-1.741397 2.220669 0.854114 
0.747725 3.661759 -1.225874 
-1.807226 2.106335 -0.727925 
1.145280 1.193767 -0.277410 
-0.982949 3.036576 1.351498 
-1.445449 3.188508 1.254179 
0.655413 2.360349 1.249996 
1.196361 2.345939 0.392626 
-1.070308 3.744057 1.364209 
0.945785 3.508575 -0.745936 
1.205584 3.322737 0.487300 
-0.271210 1.281884 -1.353395 
-0.695826 0.106506 0.415329 
0.691807 2.703735 -1.238648 
-1.329117 0.106985 0.294549 
-0.235973 2.014954 -1.565672 
-1.048207 2.690769 1.293564 
0.167270 2.854251 -1.366718 
-1.633310 2.665471 -0.734204 
0.852088 1.180300 0.563181 
0.650629 4.041826 -1.319329 
-1.537811 3.958029 -1.018909 
0.037351 0.107159 1.096479 
-1.763209 2.116666 -0.288706 
1.015162 1.879799 -0.677597 
-0.877997 3.342674 -1.574835 
-1.657099 3.109649 0.754240 
-0.420507 3.811830 -1.664077 
-1.853160 1.992777 0.616014 
1.022283 2.647558 -0.844104 
0.030759 1.054713 -1.274783 
-1.853493 3.005464 0.042919 
-0.440287 0.251029 1.380295 
-1.240826 3.955076 1.424917 
-1.448205 3.869051 1.103715 
-0.109791 0.106351 -0.263999 
-0.411976 0.106944 -0.958416 
0.805722 1.957775 -0.768098 
-1.800512 2.325152 0.762311 
0.158879 0.944966 1.392525 
-0.490934 0.356743 1.321144 
-1.227375 0.674752 0.904106 
0.474866 0.107011 -0.577709 
0.744250 3.374799 -1.219340 
-1.682514 3.903646 -0.816467 
1.213572 1.853069 -0.129651 
-0.157906 2.533190 -1.431944 
-0.698437 0.872428 -1.398468 
0.601196 0.895146 -1.073336 
-0.852318 3.385449 -1.429444 
-1.212611 1.662561 -1.339045 
0.415861 1.099738 -1.197873 
1.125741 0.968116 -0.176464 
1.087958 1.066706 0.463767 
-1.596600 3.087768 -1.101369 
-1.318825 1.883265 1.283951 
1.166735 3.783343 0.630965 
0.478977 3.957293 1.290408 
1.219585 2.499519 0.324834 
0.317272 0.615968 0.725094 
-0.047686 3.985456 1.637248 
-0.412961 3.529406 1.657936 
1.156255 3.855311 0.166877 
1.168549 4.106088 0.352088 
-0.426835 0.615968 1.035899 
-0.038004 1.576839 -1.538526 
0.867384 1.710601 0.983306 
0.489863 3.679785 -1.259964 
-0.271283 3.548637 1.515256 
-1.651024 1.384960 0.481135 
-1.856282 1.765841 -0.421623 
0.858765 1.842422 -0.660997 
-1.802903 2.820348 -0.800077 
1.148263 2.915213 0.614563 
-1.518020 1.235867 -0.722998 
-0.385827 0.615968 -0.440757 
-1.389943 0.437333 0.867943 
-1.633206 1.794074 -0.600589 
-0.443206 2.868310 -1.637971 
-1.253981 1.367942 -1.041670 
0.770310 0.615968 0.267388 
-0.261779 3.558122 1.656086 
-1.289715 0.346052 -1.061141 
0.821095 1.287531 -0.643880 
-1.071856 3.823445 -1.369624 
-0.583603 2.035955 -1.397372 
-1.878003 2.129704 -0.570213 
-0.923902 2.169964 -1.430383 
0.213306 2.518715 -1.517411 
-0.831142 2.456689 1.368384 
0.093615 0.107085 0.993960 
-2.009819 2.799559 0.057461 
-1.166803 0.106942 -0.538467 
-1.853040 3.203287 -0.215397 
-0.432717 4.106088 -1.642361 
-0.069042 1.587675 1.546260 
-1.718259 3.672289 0.976604 
-2.001517 4.063236 0.374713 
-1.895555 3.335217 -0.647296 
-1.136804 2.857082 -1.257262 
0.356690 0.414851 1.066488 
-1.464982 2.184669 -0.913687 
-1.657512 3.534951 1.050110 
-1.079072 0.473996 1.213403 
-1.384681 1.033553 -1.150513 
0.070932 1.410831 1.293015 
1.230774 3.811427 0.445047 
-0.792713 3.914292 1.614025 
1.163527 1.550983 -0.333579 
-0.680593 0.795917 -1.210725 
0.137737 0.106551 -0.252159 
-1.331046 2.821771 1.113190 
0.950099 2.629434 0.601477 
-0.007004 3.033916 -1.603504 
1.016927 0.917525 0.470591 
-1.615785 2.508621 0.741533 
0.492401 0.106919 0.351011 
-1.133915 3.633574 1.321747 
-1.756084 3.720365 0.655971 
0.506661 0.895427 1.153006 
-1.783343 2.430473 -0.804767 
0.627778 2.717925 1.291640 
0.758893 3.944286 1.050982 
1.194852 1.626599 -0.087748 
-1.976071 3.568445 -0.434480 
0.833823 1.818275 1.035237 
0.304466 3.631365 -1.365135 
0.402403 2.390543 -1.210626 
0.033084 0.403351 1.339051 
-0.724298 0.107212 1.172491 
-1.112074 0.720630 1.003232 
-1.462574 3.454572 -1.249228 
-0.279566 3.154627 -1.488412 
0.644664 0.748493 -0.984047 
-1.743009 0.251262 -0.206796 
-0.163064 3.961123 1.655308 
0.396757 0.218035 1.140987 
1.116851 1.172507 -0.398719 
0.741720 3.712654 -1.045872 
-0.120796 0.615968 -0.045573 
0.323558 1.512259 -1.408416 
0.108456 2.381585 1.546842 
-1.877739 3.813112 0.315741 
1.237738 2.221327 -0.066833 
-1.556159 1.989799 0.768074 
1.220344 3.152720 -0.421647 
-0.993706 3.710661 -1.543041 
0.597934 1.222689 -1.203142 
-1.561253 2.914674 -0.874485 
-0.543843 1.363752 -1.353132 
1.106051 1.031276 -0.393215 
-0.989991 3.057387 -1.526739 
-1.507573 1.592726 -0.788243 
-0.994018 1.131064 -1.381919 
0.248752 3.287488 1.530779 
0.003150 0.106644 0.544404 
0.446189 1.538287 -1.234174 
-0.737696 1.828255 1.548402 
0.385895 4.106088 -1.453692 
-1.503467 2.091735 -0.855965 
-1.030169 3.602396 -1.373163 
-1.414229 1.969471 1.215866 
0.564727 0.615968 0.468409 
0.580539 1.063370 -0.938569 
0.871943 3.107753 0.814410 
0.639404 2.881777 -1.289577 
1.033285 2.703032 -0.389928 
-1.738922 0.911058 0.523803 
-0.371059 0.624375 1.241503 
-0.912639 2.267914 1.444757 
-1.150597 2.662284 1.435282 
-2.021074 3.662846 0.222338 
1.205868 2.128318 0.302784 
-1.730183 0.243731 0.327508 
-1.564088 0.177642 0.610029 
-1.780026 1.963265 0.053283 
0.178936 3.061114 -1.377666 
1.280618 3.840481 0.192426 
0.327149 1.267858 1.160774 
-0.036045 1.442824 1.327420 
-0.052252 1.346026 1.523464 
-1.072714 4.085563 -1.391692 
-0.035679 3.399257 1.469673 
-1.175598 3.272097 -1.444063 
0.934521 1.952632 0.516282 
-0.788627 0.869425 1.184046 
-1.734498 3.099521 -0.599430 
-0.711237 0.450947 -1.361047 
0.965595 1.288103 0.220631 
-1.536850 0.316139 -0.785982 
-0.816046 0.106915 -0.819158 
-1.845774 3.833646 -0.778682 
0.552250 0.107160 -0.720352 
0.359640 0.106838 0.439285 
-1.497676 1.968837 -0.993233 
-0.332211 0.614989 1.407457 
-1.016912 0.615968 -0.387212 
0.416039 1.325957 1.340022 
0.417169 2.752855 -1.431234 
-1.806861 3.054893 -0.810119 
-1.247528 2.827016 -1.180498 
0.983745 0.238550 -0.310141 
-1.076857 0.278078 1.034857 
-1.041946 1.071450 -1.161101 
-0.575968 0.615968 1.109756 
-1.992438 2.415709 0.113577 
-0.786448 0.615968 -0.145972 
-1.292433 3.069946 -1.366767 
-1.112842 2.517136 1.449490 
1.039383 3.978191 -0.886758 
-0.114783 2.655160 1.433578 
0.937231 2.002363 -0.920056 
-0.426658 1.418125 1.366364 
-1.911935 3.204638 -0.596965 
-0.030647 2.300106 -1.579443 
-0.033711 0.107232 1.195816 
0.398211 0.552660 1.116253 
-1.904565 3.745779 -0.046880 
-1.723806 3.503911 0.688196 
-0.961452 3.906996 1.559793 
-1.740739 2.388670 0.870252 
-0.234558 0.106286 -0.274456 
-1.144452 2.185732 1.197090 
0.487714 3.765717 -1.423400 
-1.429133 0.338117 -0.835657 
0.506541 3.391683 -1.223793 
0.531786 1.009329 1.173966 
-0.623302 0.615968 -1.169953 
0.215310 0.378772 -1.271587 
0.984677 1.924383 0.773802 
-0.272756 1.616393 -1.568737 
0.365029 0.615968 0.839804 
-2.005837 2.718758 -0.091429 
-0.883226 0.615968 0.717500 
-0.952806 1.622182 1.400040 
-0.492908 0.172576 -1.326537 
-1.490874 2.447256 0.911426 
-0.636511 0.615968 0.705046 
-1.148407 3.748007 -1.322222 
-1.552580 1.030307 -0.926031 
0.666925 3.607563 -1.293613 
-1.610259 1.832184 -0.988924 
-0.133923 1.685812 -1.514159 
1.077473 3.282761 0.381492 
-1.257375 1.869563 -1.326624 
0.487510 2.128762 -1.275834 
-1.095119 1.312684 -1.376593 
-0.752355 0.615968 0.587059 
-1.352955 1.738266 -0.988595 
0.660211 1.674478 0.923945 
-0.225458 1.660046 1.498101 
-1.635827 0.952144 0.328672 
0.763343 0.176279 0.700327 
-1.663795 2.989466 -1.018726 
1.033279 3.811545 0.616161 
-1.496114 0.808910 0.872894 
0.852257 1.939625 1.024854 
-0.774450 2.354657 1.378227 
-1.757592 1.711792 -0.123384 
-0.392918 0.877908 1.257295 
-0.881234 3.135071 1.568134 
-1.799987 3.310789 -0.471707 
-1.685208 3.394904 0.744859 
1.012003 2.142951 -0.817801 
0.503922 0.849457 0.891442 
-0.044537 1.669287 1.346659 
-1.496188 1.189514 0.934964 
-1.517658 2.805634 -0.918358 
-0.465828 0.106633 0.644785 
-0.317990 0.106978 0.991123 
1.162580 1.187142 0.148876 
-1.780261 3.013904 -0.465787 
-1.411740 2.820036 -1.038272 
0.754277 3.188101 -0.979051 
-0.065350 0.794835 1.385702 
-1.472704 3.976806 1.256436 
-0.278208 1.487298 -1.559230 
-1.872915 1.607914 -0.490492 
0.841491 2.146228 -0.735905 
-0.940022 2.887158 1.510345 
-0.982283 2.580631 1.317028 
-1.335574 3.810396 -1.197753 
-1.639230 1.318154 -0.497828 
0.906841 2.579310 -1.007331 
0.345369 3.137275 -1.483377 
-0.618262 2.599947 1.611354 
0.481187 0.106864 0.212036 
0.324067 1.802279 -1.209691 
0.411235 1.032048 1.191459 
0.666132 0.615968 -0.410325 
-0.162884 0.106412 0.378007 
-1.560005 3.467802 -1.157074 
-1.802454 2.206397 0.746831 
-1.633052 0.891985 -0.096558 
0.751386 1.729959 -1.117175 
0.533800 2.791081 1.323435 
1.268821 2.994707 -0.060098 
1.104533 3.818340 0.419975 
1.143532 1.210197 0.296411 
-2.012760 3.885986 0.302776 
1.019180 1.775724 -0.040153 
-0.014094 2.709162 1.415589 
-1.719149 3.623181 0.714432 
-1.188561 2.352861 -1.399494 
0.017096 0.615968 -0.005134 
-1.734661 1.554945 0.216549 
1.078287 2.605108 0.032595 
1.239391 2.999043 0.319127 
0.654734 4.096664 1.311467 
0.965929 1.135898 -0.120486 
-1.215320 2.100470 1.140792 
-1.713535 1.454976 -0.289355 
1.004015 3.252850 -0.587241 
-0.375547 0.615968 -0.028908 
-0.576769 0.615968 0.369336 
0.718151 1.475689 0.831560 
-1.013302 1.508912 1.216667 
-1.710859 1.086808 0.100336 
-1.582870 3.105031 0.866981 
-0.041308 1.861246 -1.360233 
-0.359417 1.736137 -1.390988 
-1.532908 0.779179 -0.463577 
-0.871428 2.799874 -1.559544 
0.559198 0.615968 -0.655749 
-1.948293 1.752530 -0.194304 
0.942046 2.096975 0.525429 
-1.872264 3.704953 -0.720845 
-2.022990 3.268392 -0.096788 
1.033238 2.433105 0.311131 
1.081466 1.994494 0.669035 
-0.022176 2.454932 -1.399150 
-0.257017 0.106481 0.485969 
-1.539189 2.683815 -1.144606 
1.250062 4.106088 -0.150483 
0.484494 0.615968 -0.142638 
-1.569867 2.724205 -0.839883 
-1.412089 0.107175 0.575599 
-0.499238 1.621536 1.573048 
-0.979364 2.424223 -1.306259 
-0.572984 2.094566 1.594679 
-1.345801 1.469133 -0.968162 
-0.096214 0.615968 0.911029 
1.112550 1.320310 0.455741 
-1.448049 0.615968 -0.175865 
-1.912506 2.681197 0.382766 
-0.381003 1.752701 1.587015 
0.694851 2.639584 1.233247 
-0.444767 0.615968 0.648148 
-1.900462 2.055260 -0.331661 
-0.982339 3.198468 -1.533574 
-1.827001 3.071221 0.773439 
-1.512196 3.870263 1.216424 
-1.728103 3.542120 -0.957741 
-1.902962 3.850858 0.174323 
0.733155 0.278828 -0.607203 
-0.323100 0.972833 -1.315494 
-1.201101 3.487278 1.268543 
0.686517 3.464140 -1.272852 
0.424720 2.880929 -1.432292 
0.892387 2.044820 0.985768 
-0.451984 3.848328 1.536799 
-0.720249 3.059612 -1.443648 
-2.010733 2.931027 0.126877 
-1.609576 0.867693 -0.211232 
-0.825832 2.509908 -1.373939 
-0.199764 2.624158 1.593504 
-0.923905 3.581588 1.566276 
-1.762369 1.765370 0.113973 
-1.136656 3.631022 -1.320093 
-0.076661 2.607822 1.602886 
0.855696 3.240467 -0.854521 
-1.421861 3.726116 -1.114814 
-0.610525 0.615968 -0.060648 
-1.298304 2.471715 -1.335765 
-0.330865 3.515250 -1.514950 
1.258988 2.921597 0.164198 
-0.771792 0.618559 1.175759 
-1.329954 4.023450 -1.221307 
0.743304 3.130719 -1.211401 
1.042367 2.211428 0.160286 
1.152557 3.218437 -0.629101 
0.480325 3.208208 1.411572 
-1.091728 3.947944 -1.368696 
0.625074 0.547942 -0.988817 
-1.463300 0.107105 0.255781 
-0.727079 0.668305 -1.366383 
-1.870506 1.751737 0.526511 
-1.123920 2.778194 1.258815 
-0.218372 3.708528 1.521199 
-1.752884 0.755643 -0.324460 
-1.041359 0.621134 -1.046009 
-0.015479 0.887327 1.208529 
-1.771925 1.836110 0.018054 
-1.828524 2.782829 0.179335 
0.360207 2.522573 -1.452448 
0.997653 1.833704 0.275688 
-0.606045 2.685424 1.440096 
0.532178 2.098336 -1.089588 
-0.449669 0.107160 1.169959 
-0.315067 0.615968 -1.066973 
-0.482540 0.155721 1.308092 
0.607587 1.155681 0.922624 
0.200392 0.106825 -0.614495 
-0.784574 3.780271 -1.612898 
-0.309480 4.067070 -1.669114 
-1.245519 2.324038 -1.138537 
-0.860098 0.642460 -1.314915 
-1.753720 2.098945 0.323741 
0.197199 1.737126 1.479006 
-0.895889 3.859948 -1.582374 
0.915737 3.076344 -0.738906 
-0.528867 0.952980 1.489663 
0.689210 1.260792 -1.127807 
-1.852100 1.639639 0.555321 
-0.379625 1.077449 -1.340039 
0.466300 1.105952 -1.046915 
-1.854836 3.037505 -0.070788 
0.036227 2.397556 1.378516 
-0.239930 2.298373 1.610976 
1.249198 2.489584 0.102256 
-1.131684 1.868068 1.178243 
-0.486233 2.376480 1.432477 
-0.085007 2.328296 1.404702 
0.970346 1.141525 0.066858 
-1.658669 3.019708 1.026656 
0.185662 2.853225 1.540460 
1.264873 2.849344 -0.027048 
0.812134 0.613477 -0.759422 
-1.905753 1.072506 0.088684 
1.215159 2.097887 0.058992 
0.962335 0.610451 -0.445296 
-1.454316 3.479578 1.256866 
1.255455 3.370730 0.285790 
1.061325 3.122839 0.397743 
-1.872482 3.554410 0.245833 
-0.907435 0.106683 -0.455268 
0.654581 1.134966 1.145772 
-1.737708 1.778363 -0.290528 
0.578660 0.188151 0.955466 
-0.858876 0.615968 0.062000 
0.411830 1.160725 1.325320 
-0.280681 0.106731 -0.743074 
-0.070379 0.615968 0.293405 
0.444278 2.359870 1.397772 
-0.136704 2.994574 -1.626648 
0.691799 4.081958 1.133207 
0.836112 2.481288 1.085509 
-1.314550 1.326502 -1.239068 
-1.996984 3.796731 -0.368369 
-0.161410 3.449722 1.496876 
0.661776 1.036169 -0.843360 
-1.747667 1.809195 -0.800575 
-0.994209 0.628107 -1.265517 
-0.899154 1.546720 -1.361647 
-1.966426 4.106088 -0.172833 
-0.500720 2.990660 -1.638986 
-0.103848 1.145389 1.487213 
-1.567865 1.559084 -0.689699 
1.012117 2.348260 0.713725 
1.132595 3.594150 -0.215126 
-1.567977 0.456732 0.735191 
0.134640 3.814811 1.585456 
-1.024324 3.312305 -1.519623 
1.199945 2.007699 0.301769 
-1.843233 2.877806 -0.087546 
-1.253472 0.106916 -0.306057 
1.269781 3.319134 0.173678 
-1.681883 3.400828 1.014775 
-0.461184 2.385775 -1.434987 
-1.478232 3.945606 -1.250504 
0.244125 4.016458 -1.550945 
0.615856 0.659078 1.005291 
-1.912093 3.397480 0.610902 
-0.050230 4.007586 1.515691 
-1.703687 2.431946 0.554524 
-1.952290 1.891565 -0.228755 
0.381625 0.615968 -0.043655 
-0.211775 3.718731 -1.521155 
0.299331 4.049034 -1.399290 
0.544345 1.641045 1.226911 
-1.010071 4.039560 1.544612 
0.790424 2.248826 -0.826780 
-0.511173 2.725842 -1.454728 
-1.688251 1.789542 0.892151 
1.247576 3.421815 -0.336415 
1.035034 2.784368 0.832718 
-1.722779 0.234397 -0.336468 
-0.664265 3.717950 1.637221 
-1.194830 3.081884 -1.428015 
-1.583049 1.170788 -0.598095 
0.874463 0.949343 -0.703018 
0.643645 3.173232 -1.298002 
0.949496 2.304837 -0.928222 
-1.038836 1.588961 -1.428776 
1.097864 3.415902 -0.758166 
0.111430 0.936840 1.198374 
-0.454359 0.972171 -1.314156 
-0.776941 2.813388 -1.411079 
-0.885560 0.934834 1.185484 
-0.306968 2.856831 -1.468576 
-1.976801 3.532030 0.428559 
0.478501 2.953969 1.206669 
