-4.914732 7.875060 0.986971 
-2.474365 2.980065 3.461675 
-3.168792 4.072754 2.639675 
-3.085249 2.411960 -2.478237 
-2.174501 4.158250 -3.234257 
-2.536522 9.917559 3.852602 
-0.175211 3.849759 -3.858397 
2.431767 3.796448 0.703806 
1.393244 10.127855 -3.106964 
-1.005562 7.491788 -4.109475 
-1.351914 2.382681 -3.721422 
-3.766863 4.785889 -2.815372 
-2.965490 5.610281 2.935504 
-1.123242 9.928326 -3.863500 
-0.311091 4.234755 -3.810781 
-4.461354 3.541162 1.683713 
-0.257004 3.806631 -3.373245 
1.732704 9.118930 2.724215 
1.428056 3.480574 3.039005 
-4.368443 7.590674 1.396948 
2.812765 9.367029 -1.804842 
-3.835833 5.630000 2.767628 
2.970746 6.940622 -1.215306 
2.840564 3.441480 -0.976277 
2.099479 5.371371 -1.847387 
0.774415 8.511694 -3.361632 
-4.055707 1.974365 0.056412 
-2.407472 8.615998 3.479159 
0.650301 1.539920 1.870198 
-3.086049 2.029170 -2.264362 
-2.239701 2.564191 -3.286301 
-3.179603 2.947523 2.517976 
2.795181 3.498634 1.151082 
-0.918058 3.827408 -3.932257 
-1.222763 5.899734 4.039428 
-3.040754 1.729975 2.833794 
-3.583261 3.973596 -2.211957 
-1.353842 8.815119 -4.124382 
-1.353858 1.539920 0.077710 
-1.406619 1.539920 -1.777179 
-2.660657 7.073986 -3.713704 
1.643663 2.476015 -2.080568 
-0.917048 6.609128 -3.639029 
-2.024431 7.584367 3.966856 
-5.013153 6.643525 -0.113563 
0.347801 9.402319 3.957148 
2.465756 8.616302 1.647559 
-3.730260 6.580533 -2.326011 
2.241972 3.995097 1.353113 
-0.085862 8.622520 -3.682157 
0.944770 6.112349 3.596946 
-4.479049 7.582663 1.082982 
2.734909 6.700417 -1.791781 
-4.717522 9.690978 -1.743608 
-0.603136 1.459624 3.500832 
1.396263 4.269183 -2.573636 
-4.156878 5.792850 -1.564171 
0.503333 4.754235 -3.721597 
-0.812515 10.230744 -4.170179 
-4.119880 9.791252 2.688082 
0.124837 6.109645 -3.918870 
2.417570 9.415133 -1.858900 
-4.577253 7.107887 -0.490530 
-0.792200 2.317585 -3.685794 
-2.720829 5.875182 3.634035 
-4.509087 4.189496 -0.862926 
2.527315 1.908579 0.756135 
1.222687 9.759153 -3.565307 
-2.627655 2.292053 -3.253290 
-3.188807 4.839430 3.297505 
2.092380 6.008995 -1.944279 
-2.040535 2.524313 3.139649 
-3.974375 6.607845 -2.003827 
1.759684 5.880624 -2.370363 
2.193798 2.688913 1.716220 
-4.925427 5.302898 -0.488207 
-4.994818 6.120655 -0.035205 
-4.372144 5.955983 -2.141596 
-1.964301 7.280165 3.538901 
-1.718253 9.166948 4.080693 
1.858554 1.539920 -1.332642 
-4.151106 3.625160 -1.175725 
-3.794024 5.113522 2.076678 
-3.089907 7.599512 -3.502902 
-1.619855 2.448489 -3.731719 
-5.062480 8.826424 -0.386573 
1.887126 7.497723 2.394417 
-4.508095 6.116964 0.484234 
3.218823 9.067171 -0.012855 
0.316742 1.539920 -1.256806 
-1.382849 1.657497 -3.498380 
1.447896 7.048546 -3.322713 
-2.457335 9.563498 3.874477 
-3.872372 2.085616 1.067247 
3.134306 8.338600 0.726211 
2.352015 2.653646 -0.627821 
2.760880 2.433887 -0.194614 
-1.998074 1.539920 2.877926 
-0.484337 4.724487 3.478103 
-4.282489 1.119370 -0.688811 
-4.046114 1.862134 -0.202703 
-4.098904 9.511150 -2.703938 
1.015629 7.897950 3.178178 
3.153732 9.479920 -0.779619 
0.930892 6.610242 -3.125749 
-1.060079 2.988625 -3.858799 
1.143528 1.698030 -2.313167 
-3.028569 5.201313 -3.425031 
2.649735 7.431213 -2.006703 
-4.267851 6.580078 -1.452827 
-4.795553 6.885814 1.348168 
3.001460 6.808720 1.097736 
-4.555080 9.501544 -1.276874 
-3.797551 1.539920 -0.461053 
1.670663 4.505484 -3.001846 
-4.684810 9.892370 0.938249 
0.548913 1.547380 -3.193046 
-4.318506 5.469968 1.102620 
-4.469377 2.447881 -1.375987 
0.925662 4.739891 3.527485 
2.513889 4.555173 -0.558618 
3.175107 7.495079 -0.067261 
2.259254 9.422204 -2.122959 
-2.046088 5.652737 3.880611 
-1.015381 7.213020 3.679022 
-4.296818 4.281931 -2.088583 
0.919839 10.105432 -3.408062 
2.522079 9.499232 -1.670675 
-1.305460 1.539920 -2.607252 
3.165257 7.936813 -0.430425 
2.404327 4.700891 -1.062125 
-4.490270 5.259186 -1.870812 
-3.847703 3.730344 -2.399516 
-4.320784 2.532118 1.773668 
-2.967101 4.473891 -3.411522 
-2.864521 6.607681 -3.592804 
-4.408935 7.388854 -1.250410 
2.473798 5.078206 0.928214 
-0.690772 3.476071 3.855911 
-3.862091 3.969965 1.827028 
-4.909959 9.866790 -1.257490 
-2.575189 2.983885 -2.950305 
-2.471101 8.595061 3.845022 
0.785764 8.426715 3.760609 
2.998320 6.157838 -1.011038 
2.976572 4.588887 -0.161117 
-0.172303 2.085359 -3.479414 
-0.140360 4.201797 3.375568 
2.775108 3.418041 -0.112337 
0.548363 4.861358 -3.186631 
-1.737495 5.928269 3.500591 
-1.521954 5.546674 -3.988348 
-2.258761 1.267722 3.201083 
-4.875435 4.042407 0.165210 
0.483114 6.832624 3.832863 
-3.229846 7.218097 -2.878371 
1.795876 9.220022 3.134261 
2.000710 2.344919 1.356048 
0.213832 7.261084 -3.937361 
1.272244 7.626752 3.471961 
-1.881642 3.620190 3.291257 
-1.560401 1.539920 1.491881 
2.354371 4.613399 -1.722247 
0.095029 5.097998 -3.876989 
-4.293801 3.769237 -0.725649 
2.782568 9.007390 -0.814140 
2.620206 5.910240 0.508189 
0.317680 1.539920 1.064515 
-4.550735 7.682267 -0.846280 
0.983508 6.979692 -3.123229 
2.534586 6.866605 -1.159182 
0.851951 1.601127 -3.038534 
1.701545 4.129476 2.244970 
0.818476 2.860944 3.428362 
2.256382 8.637137 2.639140 
-4.673864 8.082187 0.086333 
-1.193086 4.677795 3.493181 
1.768685 7.401403 -2.515893 
3.138348 8.364904 -0.706266 
2.559701 8.869670 -2.233992 
-1.020201 7.679320 3.711278 
0.509413 8.543526 3.486733 
0.157636 6.182776 3.912609 
2.954360 8.620337 -1.421597 
-1.029882 4.710999 -3.502368 
-0.139427 8.601460 3.693187 
-1.457579 3.500353 3.375271 
2.889299 3.868159 0.915426 
-3.124551 5.051029 -3.356536 
0.936067 6.226798 -3.090738 
-2.010639 7.123574 -3.513286 
-1.890500 6.384938 3.956349 
0.616867 9.895227 3.871466 
-0.882641 1.897017 -3.117981 
2.091706 3.434101 -2.456827 
2.745030 9.554586 -1.105042 
0.060065 5.787346 3.440391 
-4.433404 1.319749 -0.298111 
-2.571967 6.548321 3.733898 
-2.544472 2.249353 3.258528 
-4.775811 9.718822 0.313025 
0.059629 6.478975 -3.950855 
-1.623624 1.539920 -0.440864 
-4.879251 4.483548 -0.466096 
-4.307740 2.972965 0.093392 
0.620669 1.766475 -2.697447 
-2.350425 1.539920 -2.100262 
1.238095 5.146800 3.111739 
-5.009388 7.998151 -0.634793 
-1.086256 1.439757 -3.512173 
-4.083906 6.354681 1.789722 
-0.441838 5.475324 3.812087 
2.895002 10.034885 0.593000 
-0.146263 1.539920 1.038377 
-4.062486 6.650908 -1.867362 
-1.009491 8.254910 4.130613 
2.022218 4.825153 -1.897910 
-4.512411 3.546880 -0.808620 
-1.379380 7.706749 -3.689250 
-4.390829 3.619244 -1.835715 
-0.666210 7.268130 3.675581 
2.530842 4.197643 -0.089177 
-2.735850 9.699591 -3.405040 
-5.065007 8.544767 -0.284998 
-3.814696 4.405345 -1.959770 
-3.257394 8.483404 -2.969194 
1.181594 9.549681 -3.208267 
-4.211005 7.047777 -2.455407 
1.303634 5.865329 -2.802719 
0.100536 6.781435 3.501035 
2.367392 3.984951 1.005046 
-2.368624 8.396857 3.878013 
2.718096 7.728418 -0.695152 
2.053874 2.687404 -1.511700 
-1.349361 8.493865 3.746781 
-0.467866 3.762083 -3.405053 
-4.453954 5.727910 0.644731 
-3.938804 6.879721 -2.639445 
3.059244 10.111781 1.215140 
-1.965063 8.474991 -3.625118 
0.195462 1.539920 0.244400 
-1.766542 1.539920 2.284833 
-3.499142 5.309251 3.095918 
-1.689893 8.261578 3.678654 
1.591700 9.585796 2.899636 
2.927216 10.140666 0.398156 
-1.531947 3.307184 3.347858 
-1.145639 10.265221 4.079836 
2.522509 6.691561 -1.157142 
-1.765850 1.539920 -2.518308 
-1.929084 1.679325 2.946182 
2.459648 4.398180 -0.777212 
1.429392 2.549007 2.354529 
-4.524418 6.400284 0.508309 
2.735416 6.246495 1.749469 
-1.610963 7.117952 -4.039649 
-0.351898 5.153301 3.866698 
-3.853462 3.064212 1.709779 
-3.694656 3.835487 -2.399355 
-3.365836 3.570038 -3.061841 
2.127069 5.309333 1.794611 
-2.040335 9.336915 3.664063 
2.525420 4.109599 0.061228 
-4.326773 6.425014 2.254817 
-4.907610 8.224827 -1.129871 
-4.252640 3.780674 -0.901538 
-3.106132 5.544387 -2.828424 
-4.404802 4.257191 -0.076482 
-0.389299 4.869381 -3.473884 
2.781295 7.813199 0.237236 
1.157720 6.964966 -3.515811 
-4.587311 5.694114 -1.724490 
-0.381225 2.774538 3.589442 
-4.588089 8.918022 1.964887 
-2.661458 2.530859 -2.847592 
2.184762 2.379612 -1.753181 
2.137085 10.049149 2.366902 
2.028102 1.539920 -0.730718 
-3.808906 2.789096 -1.736744 
-5.049579 9.888556 0.673308 
2.815329 8.204595 -0.017203 
2.585217 6.272427 -0.827501 
-0.833995 1.539920 1.687656 
2.072188 8.677069 -2.297486 
2.257227 9.762983 2.166710 
2.261510 2.962186 -1.085399 
-3.850058 8.970793 2.440360 
2.580746 6.732604 -1.849078 
-3.103162 5.337759 -2.811973 
-1.475849 3.492097 -3.865882 
0.951905 9.627134 -3.713107 
-4.868511 4.112893 -0.338030 
1.097958 3.702183 -3.186174 
1.258617 5.285442 2.786862 
-4.310552 9.567714 1.836523 
-4.121254 3.231328 -2.215301 
2.170688 8.534893 2.738142 
-3.687917 6.260825 2.341905 
0.108348 3.606898 3.771860 
0.449984 7.630698 3.874978 
2.371157 5.839226 2.330518 
1.503602 2.929820 2.986895 
0.311425 3.629926 -3.712722 
2.361517 3.352865 -0.854050 
-2.435993 4.652698 -3.583936 
-3.921125 2.141343 0.927717 
1.177155 8.731504 3.565977 
-0.464780 9.713781 -3.825332 
-0.429399 9.929270 4.140996 
2.160555 1.964867 -0.412050 
1.325379 1.539920 1.236543 
2.049277 2.881836 -1.559867 
-0.102577 9.551438 -4.079941 
-3.694559 4.488676 2.451149 
2.613061 6.476412 -2.004219 
-4.325426 1.707957 -0.978945 
2.773544 8.589473 -0.723811 
-2.781201 8.808687 -3.713447 
-4.213565 2.682017 1.989121 
-4.333492 7.924075 -2.333118 
-0.922207 3.820627 -3.440644 
1.067831 3.055158 2.915703 
1.898762 6.247720 -2.243553 
3.092844 5.771544 -0.347061 
3.213690 8.944489 0.087138 
2.079805 7.147908 -2.775694 
2.279808 5.690301 1.564094 
1.374634 1.539920 -0.978736 
2.187881 8.363769 -2.711192 
-4.116042 6.720670 1.783899 
-2.749367 2.642532 2.809211 
-2.325724 9.578865 3.583180 
-3.452292 2.423012 2.112216 
-1.772565 8.574845 3.681331 
1.844310 9.409460 -2.638262 
-4.655732 7.884567 -0.227475 
0.229913 3.237574 -3.702864 
-2.399467 1.539920 -0.190929 
-0.451274 9.406473 4.131608 
-3.563251 2.515797 -2.293937 
-4.442348 1.781295 0.438094 
-4.799647 8.687978 -1.490254 
-3.024280 4.085723 3.346858 
1.749232 7.055555 2.501588 
-1.625156 1.539920 -1.006194 
2.415603 2.716498 0.078623 
2.023004 9.194343 -2.413292 
1.237128 9.227576 -3.542572 
3.204104 8.649225 -0.145709 
1.086122 5.974995 2.974561 
-4.696257 8.817669 1.742913 
-2.583705 9.530849 3.468730 
3.041845 6.547332 0.894726 
2.755691 9.549146 1.925544 
-1.118050 1.539920 2.939754 
0.462798 8.388773 3.492919 
-3.787419 5.209197 2.672125 
1.181309 10.209468 3.602476 
-1.032438 7.033815 3.666051 
-0.680209 6.206139 -4.056785 
-5.058378 9.414005 -0.556025 
-4.866200 9.349865 -1.357592 
-4.972608 9.695753 -1.025805 
0.824264 5.002619 -3.600130 
-1.540237 9.445906 3.786725 
-0.075309 1.539920 -1.820155 
0.239298 1.539920 -0.872759 
-2.899430 1.777092 -2.939258 
-0.192839 1.539920 -2.888535 
2.170228 1.986292 0.325266 
-1.518288 1.539920 2.200832 
2.553129 6.604701 1.036783 
2.234746 5.445642 -1.615277 
1.177685 1.539920 0.569135 
2.147169 3.508634 -1.474433 
-2.461409 2.179662 2.741767 
-4.100330 6.155231 2.542347 
1.730290 8.245897 -3.156457 
-2.327006 3.592938 3.427338 
0.310787 3.424816 -3.694944 
-4.357300 6.482598 -1.208797 
-3.537605 2.260355 -2.518502 
1.083307 1.708754 2.366402 
1.881320 5.918930 -2.228244 
-2.976975 4.569357 -2.835541 
-1.229837 8.365836 3.749465 
1.429967 7.170360 2.816853 
-1.310712 7.009558 3.647241 
2.012406 6.419971 -2.810823 
-4.933761 5.807661 0.597787 
2.022753 6.780111 -2.141634 
-0.630608 1.539920 1.289931 
-4.476877 5.556362 -0.402718 
-2.609318 8.733190 -3.790128 
0.307309 3.746210 -3.201499 
2.341746 4.468157 1.713618 
1.970578 2.227610 1.233338 
-2.138053 1.557389 3.304163 
-2.630460 2.063591 2.625052 
-4.427299 5.084097 -1.970392 
-4.375768 9.284110 2.333601 
-2.783122 4.450671 2.955403 
-0.787333 9.969267 3.867678 
1.605815 1.821514 2.461018 
3.205224 8.822051 -0.250128 
1.049352 7.285322 -3.590705 
0.660326 1.539920 -1.760709 
2.267055 3.071815 1.094582 
1.758857 6.557200 3.063181 
-1.151421 2.954829 3.853014 
-3.865164 2.019188 -1.079544 
0.184763 1.910451 2.910862 
-1.974675 8.798556 3.645489 
-4.253283 9.216110 -1.892507 
-2.519546 9.882073 -3.524456 
-5.031089 8.838025 -0.641118 
-0.926978 4.905117 -4.001243 
-3.357557 6.511734 -3.276412 
-4.685081 8.206258 -1.728452 
-1.818197 7.273877 -3.578308 
-4.964008 9.394924 1.033578 
-4.943287 5.822101 -0.544588 
2.607340 8.232439 -2.125189 
2.951643 3.760131 -0.554977 
-4.457951 7.084314 1.033937 
1.618168 7.461946 2.674399 
-4.450254 8.106340 -1.281922 
2.470770 9.284821 -1.740125 
1.430889 3.492249 -3.040764 
1.086921 6.262500 3.528646 
0.761780 6.058854 3.684456 
0.884172 9.866432 3.408621 
-1.431731 4.902162 3.968245 
-4.421633 4.500152 0.097421 
-1.164909 1.539920 -0.082058 
1.783365 9.377221 3.148999 
2.224306 9.884463 -2.226803 
-4.434480 4.657034 -0.051390 
-2.525127 1.539920 -0.062060 
2.573069 1.607811 -0.338182 
-3.460044 7.835345 -2.735650 
-3.914705 2.437940 -2.306528 
-1.804898 8.332949 -4.040625 
2.567535 6.093889 -1.794199 
0.254784 3.585997 -3.208146 
-3.150834 1.502161 2.733020 
-2.462445 5.571375 -3.679303 
0.071760 1.539920 -1.159375 
-3.433794 5.884039 -2.573494 
-1.801719 9.971471 -4.081232 
2.936614 4.063802 -0.765127 
2.740613 7.744874 -1.858385 
-0.934686 6.040001 3.599532 
-1.191908 10.240178 3.898602 
-3.446708 5.463878 -2.520766 
-0.363192 7.647324 4.075773 
-4.618809 8.532076 0.812714 
-1.759864 4.256331 -3.372381 
0.121497 8.456862 -4.000754 
-3.570562 5.361040 2.378973 
1.813377 6.079499 -2.984952 
2.550889 6.353510 -0.983817 
-4.989541 6.508636 0.402431 
0.654653 8.410231 -3.411093 
-0.555947 9.751668 4.149548 
-1.577644 5.132644 -3.477032 
-2.727030 1.539920 0.709019 
-1.554819 2.116123 -3.065661 
-0.295019 4.650490 -3.442265 
-3.595371 7.713268 2.592752 
0.284920 3.803088 3.214474 
-0.852645 1.894802 3.541076 
0.892347 4.760452 -2.995327 
-4.427624 9.530699 -1.595347 
-0.470436 1.539920 -1.337801 
-1.351695 9.098014 3.788077 
-2.557498 5.901822 -3.201694 
2.670311 9.464569 1.311067 
0.160349 8.978440 4.004260 
-4.670806 8.065344 -0.146365 
1.179357 1.539920 -1.439066 
-4.462893 6.133030 2.009194 
1.320928 5.129805 -2.721219 
2.876000 4.500811 1.123117 
2.351314 2.795024 -0.697981 
-2.404877 1.326669 -3.188661 
-4.091325 2.656096 -2.174909 
-4.463598 2.096147 0.498366 
3.191978 9.452368 0.544342 
-4.794467 3.373184 0.517004 
-1.736516 6.502969 3.542523 
-4.761964 2.604333 -0.099221 
-4.787875 6.811138 -0.952280 
2.361006 3.478799 0.895282 
-3.499095 9.598904 -2.865991 
-2.368228 1.539920 0.534260 
-3.684548 7.126378 -2.438407 
-2.085129 6.407470 -3.905423 
2.194633 10.182400 -2.768059 
-4.544558 10.088914 1.419621 
1.263728 1.780452 -2.205926 
-1.772517 8.504271 4.052894 
1.678815 4.313838 -2.293254 
-2.695600 10.050272 3.783722 
0.311610 3.107199 3.147484 
0.550682 4.855775 3.710790 
-4.419657 10.070553 -2.299273 
2.425361 2.428512 1.542973 
0.694729 9.880763 -3.504176 
-3.142730 1.541205 2.179260 
-0.794925 2.376823 -3.253676 
1.301987 9.365934 3.108315 
-4.443269 4.162954 -1.817829 
-1.374818 7.382557 4.081878 
-3.601812 1.539920 1.398804 
-0.578515 3.675283 -3.701873 
1.640704 8.716513 -3.246079 
-0.038371 2.490560 -3.711995 
-1.575738 7.726312 4.066390 
-3.637276 4.176662 -2.169464 
-4.698608 5.633530 1.457421 
2.224343 5.157368 -1.591558 
0.969505 5.227968 -2.986996 
-1.902579 8.724480 4.028627 
1.465171 1.539920 1.024419 
-3.912757 5.546026 -1.960952 
0.462762 1.805487 3.248135 
-2.311523 4.361537 3.484793 
-3.894145 3.448795 -2.380929 
2.798474 7.615336 -1.728824 
1.028764 6.965323 3.589108 
2.783361 9.761376 1.028101 
-3.393704 6.728796 2.692605 
-1.408011 1.539920 2.339127 
1.143120 6.371689 2.968110 
0.937683 1.792924 -2.998200 
-0.601367 7.497621 -4.096589 
-0.460034 10.142985 3.854455 
0.625271 6.805701 3.302217 
0.834139 1.539920 0.103300 
-4.475967 1.933944 0.161118 
-2.263326 7.234930 3.433274 
0.267364 3.022473 3.672859 
-1.525370 2.838094 -3.310679 
-1.078615 2.007721 3.119530 
-4.735300 5.441729 1.333660 
-3.877624 4.309012 -1.848884 
2.572880 7.598394 1.203921 
2.804722 3.551117 -1.134998 
-3.273342 1.504879 2.630369 
1.046579 9.551492 -3.292299 
-4.938377 7.060506 0.856932 
-4.754955 9.875505 0.582351 
-4.598192 6.990913 1.826280 
2.921222 9.004554 -1.537410 
-1.820787 2.766048 3.738311 
0.165486 5.966582 3.899542 
-4.484773 8.409011 2.120858 
-4.341429 1.559683 -0.897567 
1.954861 3.862943 1.873534 
-4.037206 5.451058 2.537919 
-3.994503 4.737182 1.713450 
-1.543002 3.184389 -3.828734 
-3.412735 3.646486 3.031697 
-4.634261 7.273680 -1.773645 
-3.484759 2.017178 2.473884 
-1.806421 1.539920 1.711664 
-4.001125 1.691442 -0.509295 
-1.893887 2.053133 -2.973917 
2.370186 1.416840 -1.195578 
0.460663 4.111443 -3.693874 
-1.528104 7.400390 -3.646338 
-2.858656 3.113728 2.786130 
-4.279450 5.304028 2.231804 
-3.565622 4.271002 2.267380 
1.354335 2.665009 2.440654 
3.175125 7.968871 0.339164 
2.644647 5.770100 0.042060 
-1.740228 1.539920 0.707089 
1.731110 8.437674 -3.162350 
-4.656559 5.220290 -1.514234 
2.612824 9.679893 -2.182740 
2.589553 5.004729 -0.079074 
-1.376256 9.277991 3.798086 
-2.505696 3.655078 3.046129 
-4.986952 9.274165 0.923479 
2.636194 5.569624 -1.741396 
-4.450379 4.613658 -1.865116 
2.939448 6.769216 1.298567 
-5.007875 8.977287 0.802944 
-1.722777 7.461408 -4.033378 
-4.444773 5.451183 0.579883 
2.154758 2.695185 1.296196 
-4.762361 6.829917 -1.431247 
-4.868641 8.015038 -1.239456 
-4.940347 6.256976 -0.688278 
0.767471 3.267289 -2.942177 
0.850145 1.539920 -1.603378 
-4.865727 6.768729 -1.109168 
-5.054905 8.319477 0.326831 
-0.012105 8.799862 -3.677320 
-3.533703 7.985325 -2.680737 
-1.156353 9.221476 -4.149967 
1.123877 1.539920 1.473542 
2.823824 2.445122 -0.511160 
-3.411907 3.016157 -2.964371 
1.766700 10.265221 2.946962 
1.631769 9.721149 3.283164 
2.923349 3.657807 -0.673256 
-4.842030 6.613682 1.168015 
-2.815648 1.539920 -0.299922 
-1.879793 10.119772 -4.066376 
-1.205566 1.539920 -1.186620 
-1.501754 3.033215 -3.331299 
-4.967385 6.142708 0.469221 
3.056117 5.295526 -0.486245 
-4.287376 4.247878 0.904087 
2.794605 5.109854 1.480062 
1.367660 8.446563 2.982871 
-3.391669 7.366048 -3.288953 
1.659749 9.456953 2.824543 
-4.505114 7.193712 0.892512 
1.208706 9.391997 3.564499 
-1.420620 9.998099 3.843313 
0.319840 6.304448 3.869791 
-1.730530 4.064579 -3.364895 
-2.923381 2.798358 3.290645 
1.980868 5.263990 -2.765992 
2.501316 4.191106 1.662343 
-0.856040 5.057388 4.008493 
-0.205458 6.269412 3.542657 
2.694027 2.470106 1.150339 
-4.655334 3.575596 0.745037 
-1.347250 1.820073 3.088589 
-1.182995 1.539920 0.138058 
-0.325009 5.340996 3.912682 
-4.291824 2.920783 -0.299774 
2.044499 2.968826 -2.453111 
0.441354 9.178302 3.920670 
3.112494 6.651217 -0.530663 
0.915157 1.420497 2.988560 
2.890118 2.843854 -0.431492 
-2.605958 3.903513 -3.013699 
0.027379 9.564152 -3.721702 
0.124865 2.076251 2.940383 
0.820147 2.397262 3.320847 
-2.687140 6.691348 -3.687032 
0.939825 8.462945 3.688208 
-4.386017 4.853350 0.674913 
-0.273081 10.177226 3.828140 
-1.228299 1.943709 3.533818 
-4.425870 5.551600 0.726140 
1.880869 2.185390 2.229895 
-4.053677 2.037804 -0.192872 
-2.167071 7.911554 -3.519890 
2.547020 4.449249 0.155199 
3.022622 7.980401 -1.159431 
-5.089669 9.412595 0.194291 
0.036767 9.870722 4.054659 
-1.178510 1.539920 1.832599 
-3.216645 3.856933 3.200947 
-4.823323 3.728427 0.523906 
-1.262563 9.613788 -3.832524 
0.165674 7.979618 -3.975146 
2.808380 8.410600 -0.395168 
-3.114738 9.149155 3.130716 
-3.635702 4.214603 2.889171 
-1.062513 7.641958 -4.112732 
-4.642821 5.674261 1.600311 
-0.591099 4.623910 -3.857259 
3.137843 7.325187 0.514872 
-4.449121 2.591042 1.517221 
3.099627 6.100138 0.434513 
3.164066 8.341449 0.546732 
-4.265966 1.161336 0.980306 
-4.619216 9.115280 -1.915896 
-0.894027 7.704882 -3.714457 
-2.391481 1.539920 1.068879 
-4.147295 2.815963 2.116768 
-3.414252 6.656669 -3.242128 
-0.595988 3.016309 -3.636517 
2.085912 5.796016 1.926197 
-1.040121 5.978289 4.051099 
1.603136 1.662372 -2.449179 
0.412679 8.847508 3.545641 
3.177400 7.662673 0.166347 
-1.162872 8.963913 4.144086 
-4.989538 9.075902 -0.893200 
1.109879 8.861813 -3.197576 
0.546307 5.820358 3.764624 
-0.292866 4.252494 3.412502 
-2.444399 1.704002 -3.189798 
1.225854 3.055053 2.945229 
-1.539025 3.732811 -3.875719 
-4.445577 5.083236 -0.379403 
-1.895888 1.992336 2.970868 
-2.950731 1.539920 1.455728 
-0.702106 3.636055 3.897083 
-4.453755 4.467853 1.839206 
2.603478 1.914550 -0.219152 
-1.065180 5.724623 3.573315 
-0.596631 2.821453 3.609842 
3.137328 6.703981 0.087608 
-5.101326 10.014406 0.242697 
-4.438940 7.670352 1.226249 
-4.064069 5.785338 -1.741472 
2.969746 7.771413 1.315227 
1.356285 7.295335 -3.337566 
3.008292 7.075697 -1.107373 
0.519292 3.120207 -3.590015 
1.825288 3.520305 -2.014785 
-4.090923 8.568407 -2.073012 
0.184047 2.087243 3.382783 
0.598793 6.746217 -3.309605 
2.910232 3.255189 0.547820 
-4.031802 3.760421 -2.411403 
3.121687 8.793972 0.857519 
-5.035938 8.007785 -0.433771 
-1.254633 1.539920 -1.932902 
0.410707 6.771042 -3.392543 
1.411610 9.563859 3.439706 
-4.720910 10.114269 0.850166 
-1.863551 4.948066 -3.891128 
-1.762330 7.121743 -3.580585 
2.786301 8.139191 -0.428782 
2.345489 6.274021 1.518423 
0.033624 4.287734 -3.838979 
0.215780 7.506363 3.518298 
2.049548 5.220643 1.907707 
2.215861 3.628550 2.322665 
1.391583 7.985909 -2.921899 
-5.070580 9.309655 -0.417243 
1.312281 3.582935 -2.582147 
0.775686 6.351194 3.693247 
-0.673682 4.256465 -3.462278 
0.953488 9.250090 -3.702859 
-4.008225 2.598894 -1.308554 
0.206284 2.364006 3.550495 
-1.614743 1.539920 2.877053 
-3.679555 5.145833 2.228520 
-1.573701 9.153701 3.760996 
-3.565098 4.572609 -2.986245 
-3.904385 8.007622 -2.270065 
-2.926363 1.539920 -0.419477 
2.849403 7.242025 1.585285 
1.542444 7.251283 -3.269715 
1.245555 2.091936 -2.819356 
-4.019032 8.845104 -2.209047 
-4.788891 7.156403 -1.392847 
-3.227458 2.408681 -2.988836 
-0.797435 3.161501 -3.872995 
-2.695168 4.759867 -3.582370 
1.059918 1.539920 -1.772959 
-1.740011 2.138838 -3.023237 
-2.674548 6.932066 -3.221368 
0.621084 6.210871 3.756283 
2.029234 3.352796 1.675856 
-2.326940 1.961066 -3.262916 
-2.113350 1.539920 2.214400 
3.173030 7.466372 0.099672 
-2.929748 1.768671 2.388717 
-3.633420 7.995347 3.120027 
-4.680112 5.251813 1.455520 
0.568611 9.790037 -3.554448 
-1.208158 10.022379 3.865921 
1.731312 1.539920 -0.156509 
0.743971 3.732181 -2.995587 
-0.208153 1.539920 -0.477915 
-0.681921 5.171878 -4.007984 
1.716428 7.223470 -2.553450 
2.637007 10.129632 1.522197 
-0.069952 5.104473 3.915562 
3.167525 9.246000 0.664564 
1.248258 8.569892 3.516686 
0.128193 7.172642 3.520908 
-0.854306 7.075092 3.669487 
-0.719766 1.930241 -3.113374 
0.802543 8.183533 3.745955 
-4.330663 4.214796 0.710664 
2.563663 4.694523 -0.189197 
1.829444 3.848437 2.051958 
-0.972646 2.329535 -3.222381 
2.843665 4.630394 -1.259424 
-1.847020 8.153088 -4.025862 
-2.877926 6.629290 3.586389 
0.785875 7.047113 -3.240701 
1.827765 3.390088 -2.748295 
-1.490454 8.273434 4.095304 
-4.623329 5.882880 1.666925 
-3.281139 1.539920 1.822717 
0.994462 9.413431 -3.685027 
1.364310 7.282045 3.315822 
-3.105913 1.539920 -1.856052 
-0.949308 6.205489 3.610732 
-0.627919 2.534223 3.317031 
-1.759344 9.520566 4.080938 
0.295758 7.797282 3.512217 
1.857234 5.085065 -2.164969 
-4.377636 3.933711 1.909108 
-3.059201 9.683051 3.583654 
1.866869 2.264475 -1.498171 
-0.105128 1.539920 0.514112 
-1.991571 4.051381 3.291199 
-2.934663 1.539920 1.177188 
-3.987756 7.187727 -2.665003 
-4.647942 7.682700 0.027129 
-4.439990 3.362537 -0.826895 
2.945336 9.671479 -1.515005 
-4.340947 5.209604 -0.966495 
-4.521935 6.711568 0.658509 
-4.322772 8.961945 -2.395405 
-2.533123 3.203988 -2.992005 
-0.611081 1.539920 2.317065 
2.342034 8.800712 -1.909283 
2.406827 1.888694 -1.175861 
1.302865 5.761515 -3.179017 
2.329175 7.743329 -1.780051 
0.073502 7.601140 -3.568774 
-4.480850 5.307239 0.054438 
-4.375090 1.242329 0.697365 
-0.328818 1.539920 2.302589 
-0.135396 4.745191 3.415031 
1.414760 5.562403 3.197085 
-1.741145 8.070078 3.653026 
2.591399 6.904893 0.983031 
-2.945658 5.570430 3.497005 
-0.817484 1.677362 -3.105741 
1.169909 3.371843 -2.678092 
-1.754281 8.662179 4.061477 
-3.746964 3.650348 1.958880 
-0.962553 1.539920 -0.325458 
-0.987348 6.694270 -4.082433 
-4.867354 8.481220 1.286084 
-3.404064 3.487210 3.021527 
2.512391 4.008850 0.232388 
-0.640575 2.140752 -3.113384 
2.775492 7.917020 0.379889 
-4.056618 2.112801 0.181664 
2.341677 8.793182 -2.541668 
-1.607988 3.910428 -3.381998 
-0.800537 5.203025 -3.536449 
0.123894 2.908467 -3.706171 
2.526731 2.082113 -0.838064 
1.475269 5.865911 2.655741 
-1.021867 6.267572 4.065388 
-4.300296 10.214804 -1.958474 
3.068885 9.268272 1.119445 
-1.085239 3.506717 3.412353 
2.480073 3.979873 -1.650341 
-3.724008 8.117854 -2.496902 
-4.463880 7.114688 -1.021943 
-2.244837 8.703282 -3.931596 
2.174800 8.809875 2.170169 
-3.199204 3.005176 3.128119 
3.088991 5.822101 0.408536 
2.740287 4.232158 1.467895 
-0.459231 4.303552 3.443617 
-4.482622 4.967196 -1.852589 
-0.107154 4.404348 3.382941 
2.950749 9.498615 -1.489820 
-4.278604 9.368108 -2.472363 
-3.864166 1.370947 -1.941552 
2.070879 4.036671 -1.707382 
-1.784584 4.492415 3.879751 
-3.838010 3.244644 -2.362745 
-1.344798 5.976827 -4.030841 
-3.510179 7.241464 -2.631934 
-4.419734 9.049775 -1.532274 
-4.143230 6.616256 -1.717189 
-4.822120 6.041927 -1.152406 
1.878793 4.460943 2.805280 
1.897354 7.630832 -2.396473 
0.525190 2.413533 -3.475973 
-3.318768 6.098430 -2.702345 
-4.429570 6.926491 -1.089273 
-4.309356 1.913023 1.081368 
-2.578196 9.592671 -3.476000 
1.306403 1.539920 -1.550043 
-0.672146 4.258508 -3.936954 
-2.560014 1.539920 0.410713 
2.342400 2.485135 -0.507067 
1.073248 7.713800 3.127427 
1.369301 4.560352 2.627893 
-4.082345 5.564569 -1.673875 
0.867203 5.851717 -3.624614 
-1.808477 1.539920 -0.830221 
2.029229 5.041762 -2.698288 
-4.621751 7.371009 0.173954 
1.574452 8.176191 3.281182 
-4.094326 9.585385 2.190588 
-4.432799 4.680691 0.158743 
2.555592 1.457268 0.439120 
-0.088231 1.414820 3.411350 
-4.217456 4.592710 -2.247771 
-3.771210 4.863914 -2.077593 
-0.438911 1.539920 1.682688 
3.232139 10.039901 0.259745 
0.151085 1.539920 2.599396 
1.241920 4.590322 3.069565 
1.812184 10.230237 2.769670 
2.740246 8.030754 -0.689440 
-3.821219 7.188898 2.282079 
-3.718221 6.058556 -2.282750 
2.744767 7.893591 -0.603211 
-2.384435 8.155735 3.865276 
-3.730155 9.855659 2.665560 
-4.693756 8.715158 -1.741846 
1.278399 9.540087 3.524991 
2.829110 4.837094 -1.340512 
-0.022842 2.813597 -3.736413 
2.176091 6.169972 -1.830845 
2.762954 4.672442 -1.487353 
2.393681 2.636536 0.317135 
0.837865 4.334733 2.992641 
0.463387 7.852709 3.452925 
2.755667 7.479761 0.268963 
-0.011571 4.519600 3.864597 
3.221645 9.432293 0.172072 
2.598806 7.470999 1.092856 
-4.876081 9.172264 1.316589 
-1.991069 4.383561 3.822861 
-0.142751 1.680997 -3.006792 
-3.868811 3.642262 -1.769869 
-0.191485 5.863283 3.977701 
1.248751 2.548016 2.912624 
-0.125595 4.201727 -3.870326 
1.448388 8.861911 -3.394025 
-4.164265 9.336855 -2.618240 
0.157033 2.686687 3.676875 
-0.035664 8.441847 -3.657717 
-4.384657 4.259780 0.388800 
-1.522224 4.885634 3.468138 
-2.616862 7.337969 -3.283858 
-1.272018 9.142778 -3.799085 
-0.380833 6.158921 3.565109 
1.055903 3.145637 3.193005 
-1.790123 10.258187 -3.831142 
-1.938357 8.643404 -3.645338 
-4.980254 6.062642 0.303366 
-2.269922 7.974954 3.485718 
-0.109464 2.869091 3.761419 
1.256235 7.552666 -2.987917 
-1.524964 1.539920 -2.080038 
-0.391620 5.438604 -3.857522 
0.477908 5.215014 -3.759787 
-0.457134 3.585012 -3.389398 
-1.550125 2.121598 -3.513073 
2.025585 9.256355 2.918770 
-1.976124 1.539920 -1.331076 
2.388839 1.625909 -1.175965 
0.205684 5.601478 3.869363 
-3.654968 5.891287 -2.340876 
-2.166824 2.629008 3.107719 
0.774425 1.539920 0.578166 
-4.427361 1.908903 0.595926 
-4.329544 2.090720 -1.080141 
0.350528 5.212897 -3.298244 
-3.847409 9.169965 -2.465425 
-4.181334 3.363401 2.148203 
-1.444710 5.046946 -3.492703 
-4.495345 8.425691 1.225196 
2.912044 8.784266 1.546368 
-2.937155 3.954733 3.391359 
-3.611401 6.024208 2.403716 
0.314106 8.986184 3.593126 
2.350048 4.110628 -1.093297 
-3.040037 3.309585 -3.268070 
-2.129808 1.539920 -0.758385 
-1.796706 4.275386 3.862799 
-3.382309 4.842175 3.158066 
2.907726 9.787056 -1.617667 
1.287375 4.748309 3.095498 
1.226396 8.856856 -3.539286 
-1.552735 7.956875 4.076434 
-3.841589 1.759564 -1.110414 
2.247901 2.791797 -1.077434 
0.416865 9.170395 3.567826 
2.682856 8.246144 1.001783 
-4.635143 4.371310 0.819700 
-4.044808 9.295914 2.225719 
-3.532828 3.970919 -2.963691 
0.679232 4.700174 3.644994 
1.740733 7.834960 2.589659 
3.019885 4.826076 0.559323 
0.052323 6.663010 -3.959215 
1.303478 10.035975 -3.522225 
-4.859746 3.745029 -0.051225 
-1.015458 5.602693 4.034228 
0.286685 6.649755 3.892947 
2.421527 3.007503 0.379469 
-4.638874 3.848331 0.775030 
-4.428566 4.118511 1.839161 
2.219407 3.088550 2.240386 
2.752769 8.387346 -0.756014 
2.044140 3.801566 2.562793 
2.124373 7.595914 2.750879 
-0.804818 5.217293 4.014380 
-4.932483 9.109271 -1.125834 
3.110477 8.418457 -0.861301 
-3.542912 8.280253 -2.700197 
3.137828 8.047733 0.657253 
2.041029 8.282146 2.293301 
-1.378217 8.507824 -3.745029 
2.942639 10.265221 -1.265341 
-4.629560 8.857582 -1.883891 
-1.199441 5.566655 4.025969 
-4.028927 7.304849 -2.007430 
-1.497252 10.195068 3.846897 
-3.914024 4.799354 1.857885 
-3.683707 2.526699 1.878468 
2.475354 8.878101 2.361507 
-4.617452 8.158534 -0.695180 
1.673229 7.966127 2.670725 
2.112574 1.353212 1.749549 
0.812819 7.398843 3.254079 
-4.544624 6.657576 0.496729 
-4.237145 2.475118 1.902262 
1.163862 2.598528 -2.598191 
2.628905 5.540468 0.028279 
-1.442685 4.278017 -3.927284 
2.258467 2.421078 0.772980 
-1.117391 8.588820 -3.771360 
-0.006275 9.846383 -3.749359 
-2.748000 1.539920 -0.701699 
-2.838437 5.239186 -2.988074 
-4.792273 6.434790 -0.916657 
2.722020 9.164040 1.970567 
-4.664870 9.736734 0.976952 
-4.843717 10.265221 0.749794 
0.757711 1.539920 -0.702242 
-1.431712 1.539920 -0.381992 
-3.253184 9.798491 3.085953 
0.847054 4.105354 -3.523972 
-3.329292 9.028713 -2.958246 
1.440125 4.611791 3.130689 
2.940964 6.601660 -1.273197 
-5.011225 6.846298 -0.304079 
-0.460905 1.539920 -0.220848 
1.590341 5.563990 3.143751 
-4.732405 5.292913 -1.065782 
3.146033 7.217137 0.394135 
-4.875611 7.395951 0.994724 
-5.006377 9.432026 0.855437 
-4.038225 4.713655 -1.627671 
-3.316222 2.383728 2.228304 
2.602100 5.173654 -0.059491 
-2.067820 10.017907 3.704411 
-1.081098 1.539920 1.975521 
-2.687368 2.176878 -3.130702 
2.949383 3.541548 -0.424027 
-3.648199 6.400695 2.403275 
-4.241201 2.574604 -0.460126 
2.556800 9.340886 -2.258729 
-3.524296 4.471609 -2.335153 
-2.758400 9.903694 -3.751725 
-3.004790 6.758939 3.521033 
-2.723577 6.039300 3.124531 
-1.713469 3.500193 -3.826017 
2.412018 7.623376 2.392138 
1.459466 10.166703 3.421704 
2.188366 9.557559 -2.238619 
-4.469212 2.545165 0.746291 
-2.332600 1.539920 -0.003992 
1.460988 6.324545 2.713483 
-0.523953 8.596453 4.119368 
-0.879123 8.638352 3.778748 
2.817050 8.662338 0.484693 
2.939932 8.165666 1.426046 
2.429316 4.984400 -1.050690 
-2.222602 9.733568 -3.963050 
0.783650 5.675971 3.654659 
-4.320437 9.912571 2.434522 
-2.479319 5.284625 -3.191780 
-4.073882 7.217684 2.637223 
2.260691 8.688201 2.025711 
3.219753 9.391809 -0.202501 
-4.288386 3.742931 2.036110 
1.376457 1.539920 -0.598143 
-0.862725 9.033428 -4.150745 
0.019185 1.539920 0.152268 
-1.768774 9.388662 -3.739162 
-0.782979 3.925574 -3.933886 
-0.740176 2.747758 3.832572 
2.189605 9.090393 -2.738238 
-2.593652 1.882652 2.639270 
-4.028920 8.680311 -2.175978 
-3.099821 7.665798 3.015957 
-4.006232 10.265221 -2.552107 
2.431365 4.199198 -0.834477 
-4.144683 7.196471 -2.549589 
1.941295 5.823045 2.847026 
1.079066 3.388813 -3.118990 
-3.304132 1.539920 -1.633091 
-4.513956 5.756699 -0.007369 
-2.244409 1.539920 2.548924 
-2.476524 2.455804 2.922534 
1.135572 4.305325 -3.296858 
-2.620892 6.255467 -3.196263 
2.242186 4.306984 1.407422 
2.941884 3.340961 0.331859 
2.229488 5.962986 -1.702917 
-0.581887 7.600677 -3.690645 
0.324541 9.789219 -3.973087 
-0.576932 3.388870 -3.658557 
-2.148563 9.921134 -3.989811 
-3.345336 5.343635 -2.604438 
-2.120620 1.945214 3.342004 
-2.508312 1.539920 -1.251165 
-2.219109 3.470643 3.352677 
-3.427342 8.380807 -2.818327 
0.442861 9.914386 3.937402 
0.276588 10.026737 3.993089 
-3.749437 4.658820 -2.693274 
2.580446 2.765520 -0.021954 
-4.488790 6.998369 -0.902914 
2.313607 7.266546 2.506866 
-4.078626 2.245116 0.372718 
0.819160 6.528994 3.182326 
-3.161307 1.539920 1.995101 
-4.949028 6.123975 -0.597461 
0.371513 7.019824 -3.425864 
-4.525633 7.010675 -0.749565 
1.406614 4.571752 -2.593962 
-5.035635 9.396532 0.691381 
2.848669 9.098213 0.467358 
-4.745999 8.826057 -1.633641 
-0.964232 4.746534 -3.990374 
-2.840153 1.304252 2.758670 
-3.953218 7.096136 2.093856 
-4.907530 4.849116 -0.417320 
-2.206811 3.725375 -3.371213 
-3.571053 4.678838 -2.307237 
-4.661194 7.892447 -0.069226 
2.052229 6.894052 2.114161 
-3.654655 9.676147 -2.727533 
2.992820 4.500026 -0.595811 
-0.438556 7.673042 -4.044875 
-2.881342 1.539920 -0.920028 
1.959611 10.236237 3.002301 
2.699567 3.003978 0.091318 
-3.206034 5.773192 -2.766951 
2.979078 5.413824 -0.937755 
-1.194542 9.859582 3.856019 
3.109840 5.883677 0.170173 
-4.040184 2.448636 -2.179012 
-2.424008 7.901195 3.417403 
-4.807029 9.674250 1.535082 
-4.311434 5.057755 -1.026363 
1.322813 6.314340 -2.827971 
-1.472479 1.539920 -2.727746 
-2.549856 8.252192 -3.387370 
-4.674298 5.419919 1.493652 
-3.338628 3.285609 2.404552 
-2.414956 3.711607 3.489840 
-0.859223 5.165235 -4.013793 
-4.976342 9.549313 0.995617 
-2.799683 1.717340 -2.489276 
-4.493446 8.026954 -1.141367 
-4.513954 6.458567 -0.597775 
-4.288133 1.321156 0.940417 
-4.976269 5.749577 0.066625 
-0.647794 5.132076 4.003095 
2.512705 8.721082 2.302030 
-2.118559 8.264599 3.563041 
-1.159536 7.815171 -4.114070 
-3.241866 7.515210 -3.402681 
-5.093899 9.585016 0.180975 
2.500477 5.595599 -0.965819 
-3.712195 6.371589 -2.975740 
-5.001836 6.691572 -0.343533 
-1.233472 3.150996 3.863711 
0.035690 1.868801 -3.405122 
0.705156 6.354866 -3.725456 
-0.547271 2.620644 3.501087 
0.959489 1.539920 0.517233 
2.634446 10.262710 1.656475 
-0.211972 1.539920 -2.023119 
0.597901 2.568816 2.964462 
0.419253 4.722299 3.750916 
2.905633 10.097775 -1.638850 
-0.746953 1.366001 -3.508237 
-1.582190 1.539920 0.691605 
-3.253439 1.539920 1.667167 
2.861252 2.904121 -0.664350 
2.825148 9.892138 0.897525 
0.284688 3.789794 3.734510 
-2.463050 9.643312 3.531879 
2.019080 2.801395 -2.461943 
-2.698705 8.740211 3.749800 
1.032976 1.539920 0.357149 
-0.031174 6.654104 -3.529572 
0.660919 7.209032 3.316858 
0.585635 7.139535 3.805789 
-2.461626 8.789108 3.467784 
1.388327 6.465038 2.787673 
1.122295 2.527370 2.618439 
-0.400625 7.225668 3.643819 
1.721909 3.892023 2.193133 
0.394846 2.418542 -3.002618 
3.113140 6.512962 0.087369 
2.647883 6.999412 1.847682 
0.107712 5.806490 3.908547 
0.780641 7.280830 -3.726449 
-4.877065 4.174143 0.291915 
2.795082 7.939880 0.076408 
-1.069789 1.539920 -0.996685 
2.174508 2.531883 -1.598375 
-5.080467 10.057530 -0.484538 
-5.082639 9.032345 -0.153514 
0.496519 7.957710 -3.866760 
-0.841133 9.232059 3.818601 
-1.045193 7.462288 4.107103 
2.280206 4.290314 -2.309998 
-3.910886 4.788603 2.481845 
1.945354 5.428114 -2.086215 
-2.487927 1.539920 -1.940078 
-0.651631 3.471768 -3.791710 
-2.179277 5.301779 -3.320246 
-3.336747 7.560900 3.336739 
2.812065 3.351728 1.052446 
-0.349771 1.539920 -1.472791 
-2.974384 4.368010 -2.819361 
-3.194828 7.324813 2.916898 
-4.473752 2.209064 0.694091 
-4.703228 8.790100 -0.399206 
-4.524312 5.924885 -0.055689 
2.549662 1.856052 -0.623958 
-4.824709 7.179842 1.294623 
-4.969821 5.736195 0.235913 
-4.286801 5.946900 -2.274326 
-3.730868 5.262698 -2.887116 
-2.460266 6.205031 3.732954 
-2.401543 9.206853 3.887092 
-1.095609 1.899637 -3.538857 
-3.117823 9.679332 -3.547102 
-0.058613 2.406237 -3.158649 
-4.179068 7.734496 1.815055 
-1.284873 7.631817 3.693049 
-0.986860 2.671715 -3.346759 
-0.504257 1.539920 1.829114 
-0.546348 3.453256 -3.389881 
-2.123328 8.284970 -3.956783 
-1.409325 6.353443 4.042197 
-0.611942 1.539920 0.520545 
-2.747578 4.004985 2.939246 
-1.094846 1.822802 -3.111118 
-0.941154 4.016421 -3.944645 
-1.804675 3.979995 3.341223 
-4.656201 7.831326 0.094162 
-1.958772 1.539920 -2.249440 
0.299239 8.803033 -3.585299 
-4.710909 7.211695 -1.599620 
-2.307647 8.866410 3.537409 
-4.821181 7.301428 -1.321084 
2.118790 6.563311 -2.704238 
-4.411810 3.178505 -0.824783 
-1.772929 10.243044 -4.080878 
-4.152783 3.183023 2.164284 
3.136784 6.552653 -0.232767 
3.109276 7.145073 -0.656736 
-4.953916 5.284156 0.078140 
-0.418929 4.147876 3.425504 
-1.576998 9.450950 -4.110343 
-1.360249 3.288598 3.373414 
-4.788733 9.704369 -0.000446 
0.554001 1.384532 -3.182385 
0.200117 5.253635 -3.358124 
-3.026613 8.975883 3.177228 
-0.490389 5.626688 -3.543288 
-4.479354 4.005713 1.727358 
2.131722 8.250441 2.164506 
2.982918 4.836089 0.783747 
-4.850436 4.470325 -0.653969 
1.137383 2.814161 -2.899940 
-5.055130 9.940282 -0.646688 
-0.354540 1.539920 -1.011606 
-4.059834 8.770258 2.724794 
-4.486537 10.167439 1.571916 
-4.048225 6.001443 2.579592 
-4.414857 4.542519 0.289707 
-4.953038 5.426532 -0.273407 
2.963638 6.919111 1.236631 
-4.099410 7.474154 -1.916020 
2.820383 9.118131 0.660838 
3.119904 8.203520 -0.791259 
-4.639207 7.857323 0.393935 
2.833010 8.889330 0.480936 
2.429342 5.102498 1.079335 
-1.033338 3.609276 3.912108 
-2.612550 9.906367 -3.817881 
2.810038 3.845884 -1.198020 
-1.646045 1.539920 -2.704354 
-1.440364 5.217560 -3.505623 
-3.232480 5.390739 -2.710157 
1.958918 5.934844 -2.835849 
2.413657 4.733672 -1.838846 
-4.858869 9.792171 -1.404690 
-1.035085 9.896130 3.864110 
-0.476911 2.074966 3.091843 
-4.153762 4.838113 1.406666 
-1.138630 4.155256 3.946712 
-1.451150 1.729707 3.492726 
-1.939318 1.539920 -1.806160 
-2.537941 3.554851 -3.549259 
2.141863 6.188771 2.654111 
-2.721380 1.539920 -1.752725 
-2.358574 2.269153 2.844306 
-3.565563 2.830925 2.430748 
0.239587 3.522426 3.725029 
2.593193 10.085305 -2.231181 
2.421970 4.090539 0.839771 
2.806310 5.821646 -1.544453 
0.081309 1.539920 -0.952500 
-2.433617 7.070508 3.792183 
2.953504 6.425184 -1.210211 
2.741804 7.316792 0.295004 
-3.145587 1.539920 -0.458761 
2.589351 8.183421 -1.275133 
2.774574 3.193688 1.130771 
3.028932 5.991018 -0.844183 
-4.679526 9.411948 -0.816838 
3.162718 7.344249 0.272030 
-1.379544 10.046253 -4.149520 
-0.153389 2.514198 -3.231926 
3.213148 9.749685 -0.396555 
-0.693605 8.430287 4.129779 
-1.543448 9.512619 4.117256 
-0.157004 6.530094 -3.550199 
-4.349545 6.551251 1.242940 
1.030833 1.539920 -2.306866 
3.018195 6.404193 0.974247 
-4.118764 4.534201 -2.379437 
0.290028 9.869574 3.985405 
-0.289588 1.741915 -3.472385 
-3.246130 8.754482 -3.002519 
-0.119822 6.350523 -3.528445 
-0.884568 8.036785 -3.737228 
2.595090 5.088589 0.092427 
-3.650967 7.305975 -2.492352 
-0.484788 4.166565 3.633237 
1.821275 6.111034 2.979576 
-3.775683 6.161798 -2.903255 
2.544981 5.620630 -1.974426 
-4.471351 5.621220 0.492007 
-4.812042 9.514171 1.511763 
2.331198 4.675770 2.280708 
-2.661976 5.842095 3.141503 
-2.636433 4.506835 3.047196 
-0.473236 1.539920 2.232069 
2.476969 7.285481 -1.395966 
-3.908832 3.249738 1.639297 
-2.417462 8.986248 3.502710 
-2.852829 2.438384 3.267207 
-2.552473 6.616035 -3.745387 
0.743193 4.878629 -3.090547 
-2.105817 7.164224 3.926941 
-4.278435 6.314721 -1.383714 
-2.327224 1.539920 -1.356160 
-4.097156 2.349323 0.689510 
2.838945 3.254776 0.914288 
2.428562 1.755432 -1.079959 
2.759084 7.424301 0.081805 
0.427004 7.297159 -3.871245 
-3.260186 8.638142 3.427794 
1.737116 2.532206 1.989449 
-4.307501 1.674917 1.032193 
0.873698 1.539920 1.693305 
-0.310728 1.539920 0.511837 
-0.514207 6.355850 3.597230 
-1.153529 4.848322 -3.508465 
1.818959 4.042499 -2.825209 
-2.711755 4.985793 -3.045499 
-0.222321 8.803001 3.724803 
-0.571955 5.049957 3.886760 
-3.751891 1.985859 1.346098 
-0.476090 8.829819 3.765765 
-1.210566 6.918058 4.081971 
-0.864017 1.539920 -0.534103 
-1.645580 1.923487 3.037021 
-2.050844 6.946254 -3.935450 
2.000725 7.653693 2.885776 
-0.640841 2.477484 -3.300465 
2.355461 4.158828 -1.812651 
2.219452 2.811028 1.611040 
-0.337791 1.539920 -2.647700 
-4.411653 10.070356 1.720299 
0.750286 5.623442 -3.146615 
-4.495743 10.004634 -2.174184 
-2.699813 8.580828 3.337124 
-4.517908 7.771856 -1.001019 
0.388502 2.843894 -3.092799 
2.603569 5.951930 -0.627866 
0.127340 1.539920 -1.977822 
1.329020 1.539920 -0.443069 
1.381446 6.574644 3.265893 
0.867697 3.085737 3.423313 
-4.819220 7.646733 1.360211 
-1.090316 9.715909 3.849841 
-4.019583 9.712551 2.309794 
-0.970652 4.920510 -3.519383 
-1.952597 10.121241 -3.746717 
-2.805059 1.617256 -2.987335 
0.403332 3.903950 3.176174 
-1.391396 1.563568 3.446805 
-0.008834 4.141565 3.839320 
-2.451278 9.693133 -3.541074 
-0.256688 1.539920 1.222429 
3.114937 6.074120 0.270225 
-3.577699 3.580404 -2.172405 
2.633295 5.642979 -0.118787 
2.421719 6.189151 1.325787 
-4.238608 6.678422 1.534344 
-4.771979 5.903367 1.042566 
-0.447872 1.539920 2.443023 
0.776131 2.134202 -3.132034 
-1.499593 1.539920 -1.910360 
-3.647986 3.253494 -2.779172 
-4.258053 8.030999 -2.443387 
-3.320089 4.175311 -3.151840 
-3.524435 8.819616 -2.768557 
2.991492 4.344909 -0.543767 
2.990014 9.558996 1.389240 
-3.640232 3.751938 2.117280 
-2.528284 6.374148 3.747130 
1.332782 9.708513 3.495530 
-0.889894 1.539920 0.971466 
1.411137 7.650856 -2.875675 
0.686256 6.629006 -3.744485 
-2.526272 8.022662 3.380522 
-0.591034 7.486624 4.095174 
2.330245 8.795594 1.927550 
1.427261 4.740935 -2.591365 
3.210003 8.805417 -0.090993 
-4.076682 4.693414 2.452350 
-1.060667 1.598906 3.101679 
-0.524919 1.539920 -3.001619 
2.482333 4.140376 -1.662094 
-3.614678 9.449629 -2.743533 
-4.709997 8.578483 0.030098 
-3.764230 6.796454 2.947356 
-0.100396 5.763601 3.481335 
-5.075037 9.154676 -0.337289 
-0.848891 6.879747 3.655745 
0.317878 5.872717 -3.360243 
2.558768 4.578952 -0.077623 
0.023916 9.629451 4.052212 
3.118528 8.188181 0.797042 
2.174596 4.324893 1.557171 
0.903698 4.195137 2.939790 
-4.067088 3.457913 1.352803 
2.195062 9.908548 2.270509 
1.068913 7.123018 -3.573761 
0.595999 1.539920 -1.193695 
-0.225747 7.864267 4.058925 
-2.092391 8.353899 -3.577496 
-4.534444 7.177185 -1.958831 
3.177266 9.638992 0.658580 
1.189820 2.633416 -2.901598 
2.409668 3.610475 1.635644 
2.947851 10.149137 0.074799 
-4.274482 3.578083 -0.743204 
1.083468 3.548563 -3.230795 
-2.303428 2.027737 -2.808766 
-4.647865 7.783504 0.249818 
-1.682982 9.314821 3.754095 
-4.081986 4.139778 2.387834 
-0.049466 3.930418 3.334005 
3.102940 6.218190 -0.106512 
-1.656709 8.794661 4.081946 
1.476066 1.757944 -2.581224 
-5.028259 9.759116 0.784941 
2.615732 3.037424 1.529447 
-2.652395 3.922765 -3.543307 
0.246542 1.539920 2.163635 
-0.270210 3.235823 -3.331064 
2.583914 1.768674 -0.318794 
-3.130251 8.743026 -3.514160 
1.497485 7.458674 2.787098 
0.119216 7.805375 -3.569587 
-3.079117 7.479876 3.014976 
-3.367337 6.936513 3.287828 
-1.588627 2.380099 3.685150 
2.198908 5.622285 2.541959 
-1.028182 1.539920 -2.029239 
2.468981 4.174258 -0.660920 
1.120165 4.139719 3.341799 
-4.648874 3.674927 -1.155051 
0.029078 7.444476 -3.571013 
-1.301605 6.735765 -3.629066 
-0.694792 1.539920 1.562729 
-4.358535 5.784891 -2.148069 
-4.720470 8.974690 -0.351749 
-1.541993 1.539920 1.153700 
-1.265563 10.022056 -3.860294 
-4.330931 4.691755 0.861950 
-4.494476 2.109701 -0.208393 
0.677320 1.539920 -1.544208 
-2.612998 1.539920 0.089582 
-2.123549 7.096848 3.475920 
3.177099 7.656726 -0.170715 
-4.778697 7.500152 1.453825 
-2.305068 1.793128 -3.259306 
-4.682801 10.060884 0.997571 
-0.153019 9.740420 -3.776151 
3.195890 8.642759 -0.310853 
-2.323296 1.539920 -0.847462 
-2.119099 6.563849 -3.900891 
-1.159428 2.668580 3.828664 
2.973241 9.091328 -1.404612 
0.080545 6.998807 3.522921 
-1.571215 3.697884 -3.372046 
-1.825384 6.529308 3.976700 
3.132536 9.202099 0.853134 
-0.282606 9.421195 4.108097 
1.612132 3.918399 -3.001441 
-3.367326 2.721363 -2.968955 
-0.938717 1.747477 3.532797 
-0.426114 3.232203 -3.356620 
-2.006931 2.856093 3.697432 
-4.796403 3.242417 0.393086 
-3.081098 2.053061 2.838248 
-2.339880 8.820979 -3.521779 
-4.265930 8.435897 1.755054 
-4.723688 2.493435 -0.493327 
3.130056 7.702840 -0.647874 
1.033182 3.929245 -3.411131 
-0.880158 6.191054 -4.062893 
0.184281 3.418234 -3.220955 
3.147027 8.997778 -0.755208 
2.592406 9.486534 -2.207527 
2.241459 2.701313 -1.598542 
0.408685 1.965366 2.817706 
-1.568284 6.226838 -3.556885 
-2.547507 6.913274 -3.758956 
2.836185 8.545563 -0.105567 
-3.228923 9.584932 -3.475569 
-2.979025 4.898996 -2.863602 
-3.955832 7.757277 2.168691 
2.467893 5.635495 -2.169081 
-3.615250 9.065044 2.706643 
-2.790153 8.614731 3.702818 
0.804772 8.683209 -3.358787 
3.152547 6.869357 0.083973 
-3.620120 5.461691 -2.335545 
2.798766 6.208575 1.605842 
0.612328 5.832234 -3.740511 
0.467203 8.915669 -3.530178 
2.377647 5.634901 -2.304704 
-0.477288 4.592839 -3.467814 
-2.322988 4.111644 -3.169819 
-0.101570 9.001952 -3.712464 
-2.307136 4.276596 -3.190061 
1.361120 1.539920 1.820441 
2.415804 2.728361 -0.106906 
-1.435847 7.848675 4.090414 
-1.823703 4.571416 -3.875836 
0.670770 3.524060 -3.016437 
1.886190 7.663017 2.996447 
-1.518197 5.063914 3.965736 
2.617643 2.358969 -0.089063 
2.541705 6.497400 2.124604 
1.590504 4.264183 3.047459 
-0.306093 1.899620 -3.486720 
1.058177 3.048178 -3.051179 
-5.035796 7.830545 -0.387785 
-0.430560 7.445417 4.028944 
-3.546083 7.253886 2.598604 
2.960071 7.089866 -1.268807 
2.153566 2.763723 2.285910 
1.869822 1.971923 -1.373240 
2.971456 8.903291 -1.397374 
-0.398525 5.991520 3.556029 
-2.327232 5.674937 3.290526 
-0.027796 6.925266 -3.548077 
-4.167242 7.124841 2.518030 
-4.687733 4.007757 -1.164829 
2.494740 5.063550 2.074714 
-2.342626 7.593503 -3.429872 
2.536888 4.271629 0.069023 
-4.001868 2.339848 1.014099 
2.328979 1.867544 1.374287 
-2.018458 6.516978 3.929529 
-0.840893 4.211626 -3.466365 
2.242865 2.413379 -0.821148 
-0.120376 3.897590 -3.348112 
2.712026 6.759338 0.110022 
-4.206965 4.823750 -2.287661 
-4.766954 6.288049 -0.989037 
-2.914158 3.762426 3.390954 
-4.816186 3.896842 -0.638005 
-0.489469 1.539920 -1.131881 
0.618198 1.948776 2.707985 
3.148219 7.671795 -0.002544 
-1.416748 7.539135 -3.673992 
-2.753260 7.812764 -3.698207 
-4.086083 4.090577 1.425231 
0.273137 6.080575 3.872771 
2.761480 4.332717 0.013968 
-2.266232 5.628219 3.649480 
2.431291 4.833829 -2.148913 
-4.740597 5.722252 1.023950 
2.468345 4.361958 1.681553 
-4.308028 3.107837 -0.282761 
-0.671206 1.759730 -3.100921 
-3.964216 1.930405 1.840639 
-1.690155 3.932275 3.864343 
-4.063442 8.946194 -2.727577 
1.012815 1.539920 0.146772 
1.556139 1.539920 0.570907 
2.644583 8.709867 1.231897 
-4.062228 9.322030 -2.742083 
1.355700 4.544726 -3.100144 
-4.490262 2.387972 -1.191821 
1.597809 3.572134 -2.979398 
2.554745 4.884407 0.455005 
-0.707991 6.353900 3.614657 
-1.571461 4.158574 -3.898617 
-0.863524 3.608884 3.913018 
-1.201368 1.724082 -3.520528 
2.419260 9.097957 1.809116 
-0.628047 5.254004 -3.530082 
-1.024069 8.477762 4.135985 
2.574134 5.167903 -0.465202 
-1.769199 7.042251 4.008322 
-4.124142 3.327013 1.182437 
-1.548980 1.539920 -0.071800 
-2.303338 8.975797 -3.546963 
-3.908373 1.200563 -1.673189 
2.867334 4.431806 0.088260 
-3.287457 4.698969 3.216026 
-2.089688 3.037199 -3.567432 
-4.073293 4.882561 2.475513 
-1.392027 2.095726 -3.535154 
0.069660 7.444250 3.558545 
2.540260 2.497988 -0.012501 
2.100488 9.455871 2.347525 
-1.231744 3.411294 -3.395436 
-2.220767 4.557672 3.530270 
1.041461 6.523885 -3.050077 
-0.803850 6.596039 -4.076327 
-4.761134 9.331324 -0.055863 
-1.137305 5.286755 3.540214 
-1.023846 3.412264 3.895864 
-0.516721 2.604521 -3.449162 
-4.463247 1.945504 0.347528 
2.986591 7.320931 -1.208893 
2.208606 2.641032 2.191585 
