1.785443 1.379985 5.151687 
3.482275 3.150251 4.583477 
0.690373 20.053118 7.315968 
3.225316 1.748668 4.215731 
2.104325 15.575211 -6.292994 
-2.357522 5.595592 -7.677715 
-2.556635 17.898890 -7.570254 
2.893791 13.711197 6.614795 
-4.408463 3.565585 6.595601 
-9.371344 17.990299 -1.265607 
-9.927179 11.077522 0.292624 
-9.658092 11.444590 -1.682374 
-9.219779 4.606117 -0.183749 
5.604203 16.155172 0.316668 
-4.436071 0.535664 5.123116 
-8.729149 7.870468 0.704087 
4.573914 10.305105 4.784431 
-9.324834 16.138103 -0.611074 
-5.817677 12.839471 7.122978 
4.537632 7.610235 -3.354249 
3.178298 5.316659 -4.396463 
-8.444959 17.901230 5.067813 
5.829378 16.795752 3.021050 
-1.327021 0.937150 -6.716193 
-8.801600 11.590706 1.817063 
-6.473185 20.530443 -6.424391 
3.540156 3.229610 3.052984 
-9.856536 9.932990 0.572902 
5.235887 16.986134 4.242525 
-6.482022 3.616577 4.185727 
3.905994 17.522636 5.946989 
-7.861773 5.850660 -4.687533 
-7.588892 2.528927 4.068926 
-10.117127 18.660946 1.087269 
-1.027417 19.664309 -7.676524 
2.700376 1.150778 -5.220027 
-4.614445 14.906122 -7.745703 
-1.650427 5.311253 -6.686701 
5.538226 20.319952 2.338105 
0.827763 5.474098 7.190385 
-7.093219 5.420734 5.622664 
-0.381144 0.533548 3.318578 
5.198158 15.510429 -4.228671 
-4.291782 0.535121 -4.595091 
3.922589 18.784576 -5.019794 
2.724811 14.806820 -6.733223 
0.623529 14.144945 -7.801763 
3.774366 1.069327 -3.908668 
-6.578206 15.756351 5.777701 
-7.180669 11.703087 -4.816677 
-2.621763 18.384809 8.274860 
-0.680909 12.475170 -7.128288 
-8.469616 10.639854 4.591626 
0.278969 14.399382 -7.038930 
-3.216527 17.328493 -7.443135 
5.114230 14.760214 -4.317381 
-9.496557 9.860046 -2.261465 
-9.226236 18.663609 -2.113704 
4.523979 12.631352 3.389624 
3.189602 17.876822 -6.582494 
2.818708 20.207447 6.186766 
0.104465 1.247468 -6.666940 
-7.947433 3.079840 1.124690 
-10.060375 14.475695 0.444528 
-0.369245 2.883440 -6.870420 
-5.159285 4.827714 -5.681760 
-8.844052 5.271046 -3.172343 
1.839509 10.790920 7.143816 
3.388112 15.290601 6.331017 
-5.437527 14.207328 7.376786 
-7.549123 2.723001 -4.134995 
5.918696 11.351562 -2.141719 
6.451429 19.751593 -0.594707 
0.130623 13.537180 -7.021850 
-7.011201 4.714792 -4.558183 
-8.950853 7.954582 1.722057 
-0.256984 3.079840 -4.443215 
-3.456049 6.068853 6.569867 
3.590050 9.112017 5.784613 
-3.508917 8.607803 7.748925 
2.047401 0.536090 4.737335 
3.758630 1.448904 -3.212917 
-0.803378 3.079840 1.075698 
-8.734772 2.048001 1.285672 
-0.584683 3.079840 3.509177 
-7.249247 16.814945 -5.263998 
1.699886 13.452717 6.363124 
1.577455 0.534901 3.584685 
-8.733297 9.899134 -1.583370 
0.821414 13.542084 -6.785085 
-2.481988 2.863933 7.003758 
3.996762 11.135466 5.536555 
-7.579983 16.574080 4.879205 
-6.694808 1.996636 4.340479 
-8.276432 2.399139 -2.854866 
-2.951050 5.006258 -7.564877 
-6.142150 3.218449 -4.505384 
4.147991 5.457078 -2.964356 
4.076558 1.115270 -3.510602 
-1.730449 14.945236 -7.394837 
5.128387 3.135564 -0.816509 
-2.974289 1.317688 6.509516 
5.143157 4.630242 2.281984 
0.044057 16.016991 8.023228 
3.161513 3.079840 -0.041957 
-2.776955 12.840846 7.197252 
-4.394875 8.387826 6.456577 
3.306452 14.803257 -5.271467 
1.827373 3.079840 0.983655 
2.268889 16.941299 7.168619 
-8.149995 3.942594 -3.300877 
-1.225316 11.032939 7.094333 
-3.161819 3.079840 -3.262147 
-10.202414 19.366079 0.047793 
-5.166948 18.398655 -6.887749 
-9.812389 11.503904 1.495078 
3.702931 12.383554 4.589153 
-1.206491 4.764415 6.487176 
-1.961465 2.484766 7.017778 
1.468855 13.220919 7.443838 
-1.671222 11.143701 -7.127058 
-9.856086 14.657727 -1.854887 
0.193448 9.701662 6.719422 
-4.236900 9.217623 -6.580521 
-8.343585 7.990746 -4.492912 
3.270162 11.998846 6.267692 
-8.464300 16.359314 -3.561751 
3.022765 12.257998 -5.294353 
1.505766 8.600864 6.075525 
-0.662510 17.916828 7.506940 
-7.092074 5.579572 4.672286 
6.089986 17.896118 2.347934 
2.540619 12.277349 -6.661329 
1.485202 14.100184 -7.469788 
6.027808 11.750615 1.769419 
-0.347903 6.472608 7.615455 
-1.013165 7.990411 6.853958 
-7.150990 4.939332 5.482358 
-4.401640 13.982847 -7.783717 
6.067954 11.473986 0.195747 
4.239726 3.163333 -3.191540 
-4.671119 19.388729 7.846762 
-8.106784 16.625408 -5.427101 
4.466367 7.031943 2.562410 
-3.010455 8.411966 6.841571 
-8.587695 12.039113 -2.568541 
-9.266539 7.142608 -2.294905 
-5.374447 0.533425 0.278671 
-10.024702 13.500126 -0.493765 
-2.614185 7.631847 -6.838607 
0.825470 18.430567 -7.145805 
2.365578 18.885048 -6.397860 
-9.781367 8.408351 0.042985 
-5.457215 12.811034 -7.314494 
3.194807 3.079840 3.170722 
0.288463 17.959129 7.292840 
-8.478393 8.368773 2.092693 
-1.481041 4.398924 6.280141 
3.727838 7.015623 -5.448432 
-4.209537 18.349888 7.265497 
2.944153 6.627562 -6.078454 
-1.946253 7.504961 -7.852422 
-2.394073 16.606731 8.251413 
-0.085586 0.532843 -2.335006 
-4.833810 17.836363 6.995601 
-7.541787 10.220923 -4.997094 
6.215774 14.348448 1.342221 
6.276630 14.449306 0.948879 
3.512167 4.927835 5.379564 
0.408862 5.476248 6.307946 
0.174249 13.522864 7.909310 
-3.130388 17.174683 -8.182920 
1.346989 9.118512 -6.202744 
0.159347 1.379653 6.171116 
-7.862027 2.744857 -3.224665 
3.862883 1.370748 -4.063985 
-2.296620 0.534135 -4.198156 
-5.372936 8.051040 7.068419 
-7.145168 11.306239 6.113884 
-1.707017 0.533713 -3.796428 
2.368791 10.136120 6.803965 
-9.908791 10.851372 0.515438 
-9.249472 6.663202 2.331329 
2.772628 7.219894 5.033283 
-4.917660 7.821679 7.066327 
-1.674051 15.218656 7.412167 
-6.884605 3.002561 4.938661 
2.385421 19.836798 -7.176137 
-6.812757 12.530008 -5.272148 
-4.459063 11.537441 7.595175 
-6.558727 0.535621 3.222649 
-7.773430 7.824775 -3.558935 
0.723249 15.289011 -7.813158 
-5.463509 4.115429 6.144463 
4.982665 7.594335 -0.580776 
-7.301544 20.132612 -5.536185 
1.930441 10.005051 -7.050349 
-2.984891 0.534691 -4.641015 
0.129568 2.862790 6.740158 
-4.306073 0.533111 2.080414 
-3.875895 3.917070 -6.803851 
-0.869295 16.787806 -8.210312 
-6.420675 14.652521 -6.833179 
-6.405953 1.020157 -5.100182 
-7.793887 13.266956 4.234529 
6.070824 11.485503 -1.508946 
-8.823352 1.244045 -0.145788 
-0.267117 8.680611 7.762416 
4.077560 20.140839 -4.977903 
-4.733203 0.535706 5.012877 
-8.033643 19.616102 -4.649816 
-9.169148 6.787004 2.719671 
6.105134 11.367149 1.267933 
-8.812797 3.894978 -1.452345 
1.723683 19.888927 7.530229 
4.768025 6.802846 4.038564 
4.496425 4.682638 1.109424 
-5.787021 0.533874 0.595133 
-4.380228 3.079840 2.900502 
-8.102145 7.824986 -2.943000 
-0.251061 4.659396 -7.219407 
-8.301424 9.729531 -4.741676 
-8.513730 1.556478 1.245722 
-1.523594 20.225615 -8.342376 
-7.786377 16.969404 5.785695 
-7.039769 11.910585 -6.236762 
2.493693 0.535930 4.101666 
2.422130 5.459327 5.830921 
5.501842 14.925418 3.640437 
0.140168 7.659240 -6.580660 
3.468508 3.952143 -4.681021 
-9.488425 9.360240 2.311982 
6.105984 10.235073 -0.866650 
3.797109 19.033764 6.096441 
3.416334 14.691001 5.149312 
-4.574999 2.836920 -6.486749 
-7.693851 2.993046 -3.952969 
4.724976 0.802233 -0.011402 
-8.849375 12.088291 -1.767079 
-5.547587 2.154270 5.715618 
5.365643 4.615038 -1.363413 
-4.093164 13.229541 6.930778 
4.126138 18.780870 -4.771590 
-2.130231 3.117642 -6.199203 
4.960147 7.959747 -3.300682 
-3.871169 0.773215 -6.243749 
5.037645 11.706573 -1.936029 
-8.701794 7.191247 0.460218 
-0.575675 13.843728 8.075068 
-0.866770 20.037687 -7.686562 
-6.081221 3.909273 4.605825 
-5.370177 0.534264 2.583195 
-8.311069 7.427363 -2.366545 
4.761259 7.328825 1.756383 
3.095493 11.987786 -6.409810 
-1.724917 6.863301 7.796116 
-5.708202 3.079840 2.867992 
-9.768641 14.132954 2.162979 
-0.060176 17.068623 8.076371 
-4.272073 0.533279 -2.365787 
-5.110277 6.064739 5.930597 
6.124489 10.608791 -0.859765 
-4.700729 19.266548 7.155776 
2.411057 12.702599 6.921145 
-3.621795 6.281352 -7.545435 
3.803290 17.208141 6.031802 
-9.129339 13.448423 -3.737990 
-4.133660 18.995880 -7.334609 
-7.406225 13.190439 -5.989655 
4.308140 3.196167 -0.618576 
-6.058219 3.079840 0.477150 
-7.453461 13.914396 -4.742660 
1.568078 3.079840 -2.304516 
4.970988 16.241913 3.041162 
-1.621328 6.692865 6.801638 
2.408191 0.536141 -4.482893 
-7.933162 12.179937 -5.163863 
-1.731839 0.535454 -5.517311 
2.203186 7.615965 5.543455 
-3.852127 13.719538 7.930530 
-5.049977 3.079840 1.720351 
-3.148564 16.256479 8.155006 
3.735647 19.554590 6.169699 
5.477797 20.044106 3.957994 
3.466542 3.288612 -4.613603 
4.829870 3.997176 -2.356841 
-2.017522 7.683413 7.862385 
4.096777 17.849236 4.707459 
-3.267638 9.253962 7.836807 
5.137004 2.542848 -0.477225 
-3.192262 5.394827 6.569542 
4.826418 9.234896 2.024259 
-6.583415 4.585630 -4.313065 
2.763490 12.511485 6.482316 
1.324279 19.550873 7.022109 
4.312957 18.077581 4.444983 
-2.854135 9.002041 -7.886193 
4.622474 17.249117 -3.872188 
1.343482 0.534641 -3.453637 
-5.055772 0.535887 5.024395 
4.858312 14.961070 -4.719090 
6.106336 11.862043 0.189538 
2.791416 14.149367 6.618196 
-8.285122 12.745131 5.012994 
-4.359053 13.394212 6.850120 
-1.701500 13.255359 8.158135 
4.704689 20.166922 4.117223 
-5.295607 15.234378 7.480446 
-6.160507 11.852197 -6.866742 
6.266162 13.402497 -0.168963 
-1.543743 15.814684 7.449497 
-8.575972 5.567385 0.355083 
-8.373657 16.266600 3.718686 
-8.965501 5.601800 2.971830 
0.404461 17.640503 7.974855 
-6.101504 2.158928 5.480057 
-4.650033 16.164940 6.945721 
4.711195 16.289539 -3.579233 
4.627214 14.533092 5.013732 
1.933093 10.098145 -5.947919 
-9.720766 17.543427 2.670144 
-5.375564 17.867941 -6.742205 
-8.015864 19.464731 5.626523 
-9.292648 18.630047 -3.749011 
6.366174 17.266516 -0.876482 
5.006146 8.695197 1.063060 
0.576515 0.533396 -2.486233 
-0.196466 3.079840 4.637612 
4.990791 11.352741 4.257236 
-9.132644 18.482943 -4.041445 
-0.440301 3.079840 -0.155519 
5.764072 7.108652 1.678034 
-8.547377 2.889089 2.207029 
-8.674358 9.199560 -1.611466 
4.798080 10.711196 2.439905 
-0.841115 14.234245 8.008929 
-3.261367 11.677862 -7.968702 
-4.453736 14.632478 7.791764 
1.237266 12.296150 -6.509339 
-7.085897 4.533440 -5.093051 
-6.129754 18.899555 7.148179 
3.377371 18.660877 -5.571416 
6.405354 17.731888 -0.604369 
3.158838 9.444203 -6.188236 
-7.649765 11.094506 5.067969 
5.406915 14.111961 0.992864 
-2.698523 0.531426 -1.288167 
-8.953856 6.067961 -2.020270 
-5.974562 18.759842 6.468082 
1.669199 4.788301 -6.620679 
-9.171185 19.233271 4.004325 
-1.726770 13.012821 7.260350 
-7.916644 19.328688 -4.767692 
-8.327493 18.695465 -4.112805 
-4.258506 14.943977 7.003194 
5.627751 16.533747 0.405342 
-5.436336 2.525304 6.047372 
-4.817378 16.596420 -7.720320 
4.545363 4.670556 3.129688 
-7.945794 3.125469 -1.263587 
-2.608697 3.079840 2.670903 
-8.171371 5.013356 -2.115803 
-4.192017 4.212532 -5.806096 
-2.410979 12.182404 8.100543 
-2.983253 19.086607 -7.603119 
-5.244725 15.665380 6.639551 
3.104056 17.815994 5.743835 
-7.405926 8.057266 4.828414 
-2.742025 8.212852 6.868633 
1.919911 17.254511 6.543640 
0.848638 5.924129 7.223090 
-2.607055 0.533292 3.301686 
-1.424551 3.079840 -6.161809 
4.656488 18.211403 -3.942067 
-7.646278 6.780997 -3.612953 
-8.473506 10.054301 2.475636 
-3.603402 0.533743 -3.417061 
-8.846340 8.793230 3.773020 
-6.081509 3.459950 5.667587 
4.862690 9.579183 1.991262 
5.832768 7.198860 1.371456 
-2.875022 3.732590 6.151656 
-1.110327 9.789263 -6.994716 
-8.490350 4.955673 -0.281248 
-8.984076 12.525516 1.291980 
-6.480021 0.535567 -3.241744 
3.645098 0.535713 -1.723434 
0.109240 0.533798 -3.346588 
-8.154935 6.097506 -2.491215 
-3.306163 5.348011 7.535092 
-1.605021 10.119018 8.013556 
-8.353567 19.457504 -4.169354 
2.810135 11.442219 6.413066 
2.428942 13.858425 -5.929476 
5.111890 4.194073 1.442820 
-7.414907 3.079840 1.924634 
4.886786 15.548510 4.710870 
-4.285645 19.887939 -7.984153 
-7.196504 5.855657 -5.153862 
-0.125784 3.079840 2.839108 
-5.078845 18.708473 6.950738 
-0.858032 11.667176 7.724180 
-6.549995 12.715108 5.526757 
-5.884987 4.580335 -4.964320 
-0.032381 7.037589 7.590434 
1.923412 16.131201 6.450576 
2.043978 19.919239 -6.680846 
-2.091846 9.031641 7.945751 
-1.102710 2.394084 -6.544996 
-4.216442 6.471477 7.116346 
4.736542 7.498446 3.836721 
5.182110 11.096611 -1.055954 
-6.756858 8.633402 4.944640 
5.685249 13.215796 3.088010 
-3.860271 17.450928 -7.307448 
5.293304 10.111996 3.400861 
-9.434126 19.080805 -1.342118 
4.335924 3.303725 0.354636 
-3.425993 3.079840 3.161737 
-9.446892 17.628744 -0.236402 
-8.593123 5.634820 0.028599 
5.099398 15.328612 4.378130 
-7.676020 6.489288 -4.725489 
0.342418 3.079840 -1.337866 
4.072572 1.284047 3.220585 
-1.456562 17.358492 -7.553592 
-3.114383 2.414926 -6.905083 
-6.298920 8.731406 5.366139 
3.695736 6.212855 -5.383643 
2.159315 10.365262 6.947391 
-7.542419 9.727828 -4.155186 
-4.597974 3.197104 5.579377 
-5.984982 20.500841 6.660270 
-1.106024 0.534866 4.886649 
0.329995 3.079840 -2.345197 
-9.826939 19.885773 2.503382 
3.124155 13.926313 -6.485559 
-8.531560 1.198936 2.037094 
4.825933 16.140339 3.341178 
-0.683466 3.035902 -6.938715 
-2.302292 13.298436 -8.150581 
2.781035 18.494215 -6.892512 
2.656895 6.572110 5.987977 
0.220853 8.081686 -7.607145 
-6.890566 18.233452 6.619502 
-1.449497 0.530517 0.488348 
-8.866007 19.490086 -3.238698 
-8.731152 16.037643 2.958442 
4.369218 6.523912 -2.691457 
2.938532 20.081226 -6.081185 
-8.959085 15.174690 -2.165395 
2.571214 13.799314 6.866935 
6.093255 15.711927 -2.137592 
-7.596819 10.272575 4.146658 
0.163257 16.040661 7.193274 
-9.585988 18.942352 3.119383 
3.047871 13.460938 -5.386638 
-9.452529 11.423698 2.013237 
3.909256 12.293113 4.320460 
-0.378340 3.079840 1.025046 
4.738139 6.441667 1.553235 
-0.655638 8.963882 -6.870431 
-7.348026 17.880682 6.237252 
-8.604788 4.372561 -1.774260 
-5.633497 3.079840 0.531533 
-2.236847 3.079840 5.357006 
3.648564 11.496281 5.906637 
4.640267 6.933628 -4.303300 
3.144979 18.693386 6.637113 
5.137946 4.272257 -1.383821 
0.501038 17.996284 -7.954726 
-2.334294 10.148260 -8.008131 
0.718340 17.091022 7.087292 
5.045957 12.117750 -2.008017 
-0.501465 8.551199 -6.813752 
-3.522894 19.402567 -8.169049 
4.824988 17.841707 3.592063 
-2.391699 3.079840 2.910198 
-9.220408 7.873826 2.824747 
4.117096 4.276341 1.811107 
-2.710418 0.532706 2.673971 
-4.574046 3.079840 0.153302 
3.793520 14.880997 4.753031 
0.189100 2.090137 -6.699056 
0.671798 9.776797 7.584138 
4.267095 16.820297 -4.361548 
-3.433772 14.714947 8.061258 
2.240139 15.481905 7.139935 
-2.949552 19.393232 7.629793 
-5.903321 7.709229 -6.749650 
5.125390 17.229307 4.432495 
5.993242 19.890141 2.791586 
1.931372 1.015749 -5.662514 
-5.564184 10.894554 -7.156754 
-0.675582 3.079840 -5.295400 
-9.836124 12.046288 1.509422 
-10.175953 18.218916 0.084683 
-5.778186 9.430938 -6.950036 
2.358713 3.079840 -2.878131 
-6.527669 15.794095 -6.801528 
-5.038956 7.915491 -6.128488 
-7.906248 0.972561 -3.074852 
6.007871 15.223098 2.373615 
-8.210917 3.612416 -3.135606 
1.018227 16.549694 7.741795 
5.805221 8.115299 1.822531 
-6.881516 10.115421 -6.256091 
5.415094 7.546416 -2.943510 
2.231152 6.898291 -5.455392 
1.092615 11.640717 7.529249 
0.943979 13.494094 7.667733 
1.738448 7.131915 5.812301 
4.509782 13.649629 5.108398 
-1.878415 17.244968 8.285242 
-2.789385 11.699947 -8.039549 
-1.765158 6.064263 -6.758119 
-6.883860 4.526628 -3.902882 
-8.966332 7.576935 -3.371203 
4.683569 8.445421 -4.432962 
-2.354968 4.293211 7.134911 
5.111403 13.435624 -4.233737 
4.562253 3.517104 2.921283 
3.202189 3.918823 3.638107 
-0.298073 8.872522 -7.782088 
-5.112365 17.561941 7.631125 
-8.868355 13.841083 2.145491 
-10.160933 20.115061 -0.969077 
-9.530083 5.742682 0.790675 
-5.225253 20.305887 -7.005500 
4.827053 3.113009 -2.186435 
-0.090966 11.250594 -7.870582 
0.772725 17.969994 7.871722 
-0.560213 3.079840 -3.145612 
4.836008 9.937585 2.167488 
3.133268 3.170209 -4.964837 
-9.048801 19.623882 -4.240165 
-7.746777 11.711145 4.112081 
5.167389 8.260509 3.284214 
1.180148 18.158978 -6.981680 
1.260467 3.079840 1.013636 
-1.365746 0.532865 2.915412 
1.979112 4.774352 -5.273647 
-7.578158 15.676061 -5.942439 
3.040305 17.398191 5.758992 
2.002827 7.959540 6.863816 
3.156429 16.777699 6.570936 
-0.812308 14.230481 7.273944 
2.247249 8.053253 6.330218 
-4.385074 15.738875 -7.848727 
4.830433 9.555965 4.335990 
-7.194896 5.937080 5.109068 
-9.488211 16.853886 3.224884 
-2.645259 0.534743 4.762040 
6.463753 19.860529 0.388348 
5.451419 5.538230 2.339352 
-7.291266 14.774045 5.012361 
-1.520065 3.079840 -1.254343 
-7.153195 6.231679 -4.740148 
1.921434 19.422598 7.420980 
-3.673915 3.079840 -4.309310 
-9.181839 14.493886 0.908536 
-6.888562 10.715164 -5.025562 
-7.634184 11.955977 5.701266 
-6.337406 10.647095 -5.513229 
1.441694 0.533939 2.294103 
4.298751 5.314963 -4.553301 
-6.264893 14.233085 -6.912809 
6.260263 12.978417 -0.596640 
0.044803 1.691744 -6.741444 
1.676374 18.239645 7.511841 
1.334523 19.099575 -6.983050 
1.530011 18.707718 6.864535 
4.243408 4.719602 4.261057 
-1.976452 1.561980 -7.017293 
-6.760019 15.933017 -5.643546 
-4.435726 10.619970 -7.444478 
0.166043 5.972744 7.450806 
-6.450243 17.998047 6.077730 
-6.623816 3.889968 -4.042828 
2.886771 8.321842 -6.193133 
-1.576193 17.199203 7.546471 
-2.903450 17.304630 -7.492828 
-4.411553 11.950950 -7.696976 
5.820697 9.287362 -2.080854 
3.955144 3.004430 -3.954411 
-5.627820 0.631361 -5.165726 
-8.303846 4.993313 -1.639352 
2.692497 12.118058 -6.430380 
4.439603 5.754714 3.232015 
-3.844697 3.515046 -6.782707 
-6.284800 12.332179 -5.710751 
-4.082700 3.815624 6.733276 
-1.151873 16.549568 -8.231805 
5.470432 15.698025 1.284481 
-6.118751 0.535809 4.048913 
4.410632 11.669245 5.100046 
3.460580 16.491795 -6.312914 
6.441357 19.934013 0.737817 
-4.655027 10.522733 -6.516929 
1.467343 8.013659 7.143446 
-0.331820 16.127455 -7.322897 
-4.159607 13.843653 7.851807 
5.461040 14.145584 0.432849 
2.087404 19.017933 -6.581334 
-4.180426 6.426929 -7.217326 
5.413466 16.619377 3.906840 
4.851999 6.741310 -1.100134 
3.172513 19.499420 5.837354 
2.722443 3.840960 -4.222915 
5.112654 6.972909 3.196868 
-4.886507 3.079840 -2.044030 
2.973410 12.356267 5.350337 
-2.348796 5.037398 6.637463 
0.750327 9.612476 6.515787 
-9.026279 8.774623 -1.754600 
-0.818033 16.064278 -7.403603 
-2.110403 18.424576 7.632370 
-1.773356 5.605665 -6.718940 
4.690077 1.186679 -2.334420 
-1.244016 0.533217 -3.249861 
-0.588114 5.874541 7.383917 
4.424663 7.348685 -2.722496 
-3.733250 0.534399 -4.071192 
4.844846 13.549795 2.866059 
-6.108609 1.858088 -5.443611 
-5.794037 16.031372 7.255191 
-6.448147 8.965449 -6.488962 
6.265705 16.777094 -1.486691 
5.126570 19.017090 -3.162599 
-3.837173 0.534050 3.636897 
2.583154 3.079840 0.907325 
6.206672 16.404850 -1.732944 
2.908881 0.536187 -4.017509 
-2.620152 13.055351 -8.116646 
5.617038 5.323393 -1.655101 
4.245054 9.784521 3.485557 
-8.752193 10.267532 -1.618281 
0.621197 3.079840 -4.502625 
4.477559 5.750955 3.569043 
-8.072199 1.355783 -1.687050 
5.030452 18.969162 -4.658189 
-4.985090 14.472881 -7.590503 
-2.873124 18.226746 -8.246597 
4.498209 15.761531 3.878053 
-7.874313 11.429890 -3.888508 
4.575662 3.158712 -2.844983 
-9.433238 9.859195 -2.616679 
-8.783573 11.263494 4.162056 
-0.522248 13.277897 -8.046034 
-5.063776 17.144180 -7.641135 
-1.354910 16.935753 -8.260449 
1.114328 1.814955 6.340502 
-2.836879 3.079840 3.838641 
5.193056 10.568646 0.636285 
-2.776180 0.534292 -4.284526 
-2.901151 5.538949 6.632711 
-1.276735 15.228735 -8.208746 
4.204341 4.287812 -3.764867 
-0.154752 8.255190 7.708641 
3.702805 14.316394 -6.010694 
0.029215 13.217568 -7.932024 
-6.806569 6.695561 -4.685057 
1.736004 17.633118 -7.469155 
-1.373040 15.361429 7.412553 
2.724846 2.794534 -5.320513 
5.968215 8.887117 -1.252674 
3.109482 9.051680 4.895557 
-4.101009 1.679998 -5.883631 
-2.215282 6.755930 -6.803343 
-2.292901 0.531576 1.627938 
-0.025981 11.461585 7.865706 
6.239877 12.218848 0.373365 
-4.127052 12.019114 6.831210 
-3.523855 9.960832 7.833614 
-5.223924 4.278306 -5.278819 
-7.901147 10.125669 -5.008800 
-6.471311 3.079840 0.598073 
0.812163 4.400379 5.690654 
-2.770394 20.525454 -7.818836 
5.137564 9.508170 0.329160 
3.133070 3.079840 -2.756741 
-2.423301 0.534080 4.131444 
-4.026142 8.809591 6.622845 
-8.291855 3.916595 -3.011551 
-9.720687 14.872171 -2.415841 
5.487321 6.410592 -2.474072 
5.177505 9.934126 -0.034334 
-7.711052 1.369603 3.910630 
0.498958 0.942784 6.314557 
-2.588101 3.079840 -0.478827 
0.125850 3.819428 -5.912582 
1.969956 1.294936 -5.469543 
-3.009735 4.410158 6.190093 
1.988965 17.993557 6.560218 
6.068661 18.621094 2.473161 
5.583331 9.121792 -2.780843 
-9.214764 15.563082 1.190673 
-1.301098 3.079840 3.138750 
-8.875163 16.310429 -4.367629 
-1.620675 10.612635 -8.037510 
-5.209087 3.079840 -1.915189 
2.664594 20.283386 -7.014076 
-5.370249 4.168585 5.181170 
-2.184364 11.469229 8.075624 
6.212088 12.017309 0.654690 
6.152843 10.533009 0.543535 
-4.758383 14.289858 -6.760017 
-9.521239 5.272686 0.442575 
-6.300593 6.706765 -5.169845 
-0.503950 0.531522 0.884119 
-3.821240 19.024490 -7.429492 
-2.169427 19.463123 -8.327080 
-8.361609 20.197409 -4.252141 
0.262852 20.481859 8.058953 
3.941480 1.657893 -3.925461 
-8.467882 17.916910 3.782838 
-7.732832 7.091587 -3.519152 
-5.278108 14.645949 6.541703 
-9.239174 8.928974 -2.041081 
2.200342 10.133608 -6.908857 
0.217937 15.960047 -7.170759 
-7.237806 13.513910 -6.159893 
-2.233063 1.570617 -6.813566 
-1.681171 0.531659 -1.754941 
-7.587712 17.573494 -4.977890 
-8.157450 20.530441 4.817289 
6.019765 11.942105 -1.844044 
1.300912 14.615040 -6.658098 
2.361104 5.898645 -5.254295 
6.011269 18.790432 -2.675019 
6.192913 11.318394 -0.502628 
1.486790 19.892931 6.974322 
3.134305 14.289464 6.493709 
-6.665820 18.499647 -5.949731 
-9.844700 16.499969 2.166782 
5.947959 7.594934 0.778952 
-7.967089 12.546885 3.888563 
0.265421 0.533281 -2.611527 
-5.319514 4.420529 6.332959 
5.479679 6.589982 2.541722 
3.312578 7.060884 -5.851130 
-5.735961 13.681453 6.204859 
2.111246 3.079840 2.002701 
-1.831170 14.698110 -8.212491 
5.001616 18.414829 -4.677526 
-4.397692 9.254866 -7.230584 
-8.870466 2.328667 -0.449605 
4.938368 7.179005 0.708138 
1.994830 11.076631 5.990929 
5.299470 14.862426 -4.013407 
-4.794010 17.698414 -7.003216 
-7.968154 20.433826 5.705134 
-8.036035 15.071218 -5.385120 
-7.037536 6.371911 4.392641 
-4.910501 3.079840 0.313761 
5.135071 20.044134 -3.315166 
4.802790 8.761948 -4.285062 
-1.051544 13.640024 8.127022 
3.923677 8.652065 -5.407498 
-5.167409 19.061697 6.937460 
2.710628 0.684844 4.551987 
6.246758 17.462652 -1.685664 
2.389528 3.079840 1.348904 
-3.914891 0.533733 -3.229427 
4.173369 0.990465 3.103731 
-7.481949 19.058315 6.147307 
5.023826 20.254564 -3.571517 
-7.826966 5.498290 -4.659401 
0.850875 15.760601 6.938650 
6.311053 15.525663 -0.962903 
-2.783321 1.302378 -6.616386 
-1.130665 6.870468 -7.292614 
-6.724226 20.405834 -6.075950 
-8.834893 19.665680 -4.585876 
6.211131 18.365986 1.933939 
-7.672194 1.793412 3.327202 
-7.063974 11.482881 -6.190853 
-5.253621 10.758822 6.246430 
-4.569464 11.254332 7.183588 
4.893247 9.764677 -1.937706 
4.658229 0.806222 -0.935589 
-5.669974 5.200194 5.494014 
2.973295 3.446513 5.136244 
6.008368 8.772700 0.925904 
-8.462887 10.580120 -2.608318 
-3.836886 0.535088 -4.769126 
-9.125563 14.393514 1.234133 
-0.407613 20.162050 -8.219561 
-1.190486 11.361450 7.114248 
0.872094 3.079840 0.531432 
-7.448515 5.951269 4.673399 
-7.200001 6.900027 -4.258863 
1.233290 17.059261 -6.874525 
-8.645846 4.637539 1.590382 
-8.577139 18.725912 3.695862 
-8.794299 8.405451 -0.385972 
-7.711082 9.484093 -3.888495 
3.584935 1.033546 4.122066 
-0.721191 19.787771 7.646031 
-2.300269 6.425918 6.775270 
-1.760927 3.079840 -4.493830 
2.808501 1.355656 -4.399328 
-6.902755 6.209528 -5.883205 
3.514251 4.845882 -3.770986 
5.955819 14.917917 2.508983 
-6.301006 3.079840 2.739497 
4.361372 4.580984 -3.157769 
5.618202 17.338568 -1.081759 
-3.105060 16.127579 -7.377774 
4.489549 5.054208 -1.973315 
4.939432 20.530441 -4.207151 
2.122738 12.420768 7.079158 
-6.925138 4.151672 5.018148 
4.767446 15.621309 -4.880848 
2.035167 17.232189 7.302466 
2.892865 0.535245 2.365330 
0.669081 3.846601 -5.698659 
-0.331204 12.780913 7.996551 
-8.903013 11.265133 1.235952 
-3.657526 13.398357 7.964132 
-9.578045 19.702347 -0.540455 
-8.984200 14.169533 -1.830023 
-9.845777 19.425373 -2.406332 
4.664002 9.732058 -2.597934 
-7.105577 15.879284 -6.368285 
-0.733282 17.560946 -8.214038 
-3.493469 18.843704 -7.493300 
5.747267 12.674485 -2.868140 
5.188400 10.194269 -0.280517 
-7.100879 16.926865 -6.408074 
-10.198254 19.778313 -0.451486 
1.365097 10.370443 6.295146 
-6.827551 13.478683 5.349471 
-3.055000 3.270250 -6.100016 
4.494820 1.945569 1.754370 
-0.012554 7.181871 -7.598074 
-5.043174 4.340137 5.408307 
-4.124018 17.482506 7.976231 
-6.757692 1.304002 -4.519405 
0.901152 17.713081 -7.064199 
-3.321044 13.349564 8.031108 
-9.461981 17.787209 0.110579 
-7.869882 10.763055 -3.806289 
-5.460977 7.638019 -5.867801 
1.325358 1.767359 -6.237249 
-4.013862 5.712187 7.394864 
-8.251593 16.907345 -5.262388 
3.336117 14.148691 -5.179606 
2.974626 10.115119 -6.359094 
1.950199 19.084764 6.669749 
-8.385544 5.514541 4.068805 
-4.932580 12.487305 -6.543465 
-2.617837 7.999063 -7.845994 
-4.928153 11.730488 7.411505 
-3.168880 9.368942 -6.886129 
1.155863 16.687323 -6.881366 
5.555130 5.158340 1.859926 
1.465143 4.902718 -5.703082 
-4.210084 14.203142 7.849783 
-8.769878 6.354568 3.536449 
-8.952559 11.160756 0.852798 
-8.670084 1.006647 0.383371 
-6.115646 20.530441 -6.676263 
-0.570414 5.038278 -7.313927 
4.754748 5.051220 -0.661226 
5.373160 16.003454 -3.947505 
4.385170 15.754307 -4.059384 
2.263120 19.375454 -6.500820 
5.086716 9.667653 1.009056 
-4.094349 0.802853 6.204940 
-0.152600 12.538826 7.024728 
5.098519 1.363248 -0.931158 
-4.942613 4.263649 6.441232 
-7.272377 1.182490 4.384255 
1.694108 8.210708 -7.047944 
-2.920549 10.607811 -7.017071 
-1.048346 12.359196 7.939644 
-7.197558 17.068165 6.333783 
6.044248 14.378378 -2.150796 
-2.519440 0.530685 0.479348 
-3.076303 3.730349 6.976602 
-4.975446 1.479979 6.303680 
3.319926 20.485559 5.846641 
5.460355 5.206318 2.214445 
-5.822420 15.488643 -7.223743 
2.916448 16.391628 -5.771583 
4.752326 4.967960 0.388689 
4.403059 4.710183 -1.642862 
4.691022 9.073042 -3.438862 
5.818630 7.926390 -1.711765 
-6.057137 10.402625 -6.850062 
-9.088056 15.033224 1.648971 
0.475675 18.405748 7.971832 
-8.982409 11.864773 -1.013543 
3.341754 16.367313 5.387339 
4.569356 6.898530 3.294223 
1.024359 11.006184 7.522873 
3.117243 8.776693 -4.858363 
-8.839468 18.099550 -3.064548 
-3.776003 3.079840 5.674325 
-1.908460 19.052275 8.326607 
1.999896 17.416515 -6.506926 
-9.785804 9.233398 -0.830474 
3.286547 3.100267 -3.455534 
-3.401792 3.412681 -6.027957 
-5.027097 9.831078 -6.292116 
5.004531 15.608032 -4.544713 
-2.368406 0.534439 4.493819 
0.989705 20.236187 7.845247 
-7.209594 5.562279 5.357223 
-9.776123 16.090027 -2.355960 
-1.196934 3.079840 -5.897098 
-1.185943 10.586267 -7.910996 
3.100153 11.184274 5.117940 
-9.485308 4.990819 -0.605370 
5.802630 20.530441 2.009782 
-4.994621 9.063063 7.219661 
1.658433 6.275811 -5.784048 
-8.615436 8.937987 -4.187098 
1.028499 7.195785 -7.269858 
-7.408280 3.079840 -1.684155 
-8.471343 4.577760 -3.187434 
3.520629 10.861908 4.641550 
3.493758 5.347793 4.008059 
1.351386 4.089647 6.343173 
4.658708 12.796890 3.151074 
1.594841 0.535173 3.938426 
-0.435257 0.889639 -6.530951 
-9.478954 12.151585 2.815644 
1.183532 3.259082 -6.356382 
-3.086221 16.820187 -8.180624 
0.168543 17.829212 -8.043953 
-7.127970 6.455139 -5.709278 
3.865450 0.762157 3.150914 
-9.578479 6.656120 -1.051148 
-6.669002 19.627777 6.047554 
-8.547394 15.117422 3.210424 
-0.439474 3.079840 -5.616066 
-7.600931 6.258223 3.609056 
4.815111 14.490121 3.090870 
-0.482626 14.140961 -7.213647 
-8.354273 0.907643 1.714554 
0.299674 5.822132 6.384447 
5.622005 16.478230 -0.466301 
5.796760 6.136826 1.048123 
4.264176 3.087851 0.930442 
0.472952 8.194708 6.511033 
-8.522720 5.390832 0.779882 
-0.740473 11.205070 -7.791256 
-6.676462 4.224302 5.266768 
-9.978722 12.081717 0.170936 
-0.665793 0.531144 0.370325 
-3.482000 12.234484 7.956925 
3.576627 15.853479 -6.195090 
-5.894691 19.093966 6.544594 
-7.770042 20.518827 5.189684 
-2.780588 0.530834 -0.285092 
2.460852 5.963993 -5.881827 
-2.190945 16.204628 7.476661 
-9.370102 17.276119 0.960101 
2.211992 18.968788 -7.254328 
-3.289734 7.494647 -6.722110 
-8.394223 4.783979 0.412470 
2.413366 9.048040 -6.107665 
0.124211 3.079840 -5.303208 
1.033673 20.530441 -7.667495 
4.228438 4.580756 3.216308 
-9.821735 17.723032 2.354747 
1.289902 15.657963 -7.614339 
5.534326 18.591251 3.784527 
-8.840791 1.211728 0.196860 
-8.143592 10.610573 5.027306 
5.527318 20.090481 -2.319670 
-4.686082 2.839852 6.439904 
-1.863084 6.294858 -7.752724 
-8.211492 0.856896 2.008717 
5.262770 14.257880 -3.782465 
-7.891162 1.302788 2.887133 
-8.698300 12.540333 2.376235 
-7.381382 8.100328 -4.830355 
-1.917066 3.079840 3.397240 
-8.423265 8.943239 2.381517 
-9.090915 7.312590 -3.044825 
5.753534 11.882269 -2.744838 
-0.076795 19.782204 7.519868 
-5.145634 10.087971 6.250200 
3.728784 1.350619 3.200349 
-2.583547 0.530850 -0.658641 
3.620134 18.109646 -6.234347 
-1.912210 8.606647 -6.950459 
-5.658068 13.206458 -7.223372 
0.881330 18.105249 -7.835951 
-7.843068 15.291092 4.406354 
1.679783 3.079840 0.672916 
0.132744 0.531930 -0.343143 
-5.589789 12.437687 -7.225790 
-7.465838 8.947151 -5.357743 
-3.549784 9.851396 6.837762 
-5.627083 15.375983 7.324952 
4.615712 4.990123 4.036861 
2.209062 7.749218 -6.559646 
-9.146841 13.204226 -0.016272 
-8.089592 6.517276 -2.730182 
2.579828 3.741957 5.508626 
2.007035 3.021079 -5.665114 
-1.737756 0.530820 0.930630 
5.451468 15.306747 1.232630 
6.084238 9.573190 0.681367 
2.734936 0.535443 -3.039446 
2.321318 9.114662 -6.408185 
-9.733498 10.188493 -1.544433 
1.790450 18.408421 -7.464225 
2.338832 14.531675 -6.051655 
-7.853718 20.250103 4.943688 
-4.193331 4.875384 -6.164904 
4.014100 12.362997 -4.183064 
-6.276736 9.264343 -5.434837 
-7.771770 0.614703 2.399327 
2.748838 17.024916 -6.871040 
-6.169932 7.052580 -5.311824 
5.515336 13.829283 -3.519372 
-8.161551 3.321368 3.189883 
-4.441623 8.311399 6.864750 
-1.694583 16.722050 -8.265979 
-1.995712 0.531987 -2.090167 
-5.700616 19.940697 7.412083 
-8.261220 5.918904 -2.170061 
3.425050 3.482281 -3.268370 
-9.615339 6.403943 0.474296 
-2.593071 4.089187 -6.206923 
0.480258 14.689474 6.998241 
4.507369 11.616764 -4.977521 
4.365682 6.610657 -4.645268 
1.243482 10.696740 -6.382966 
6.205688 14.590724 -1.455933 
-7.233133 0.535864 -2.515483 
2.994300 17.641739 -6.715467 
4.970000 2.450645 -0.169834 
2.121013 0.534885 -2.954562 
-4.433530 16.171677 -7.846039 
-4.682000 6.860962 6.843115 
-5.838620 16.181314 6.344936 
1.316944 8.983281 -7.279752 
-9.032770 7.489313 3.208434 
4.584249 5.446445 -3.870338 
-10.019917 20.528557 -1.310444 
-9.222208 19.616428 -2.351589 
1.730037 20.512342 6.969905 
-8.582329 11.506642 -4.504814 
-3.255616 0.535455 5.351055 
-9.354251 4.883004 1.188393 
2.715470 4.894725 -4.747559 
2.625752 1.775593 -5.375294 
-8.432568 15.061132 -3.429512 
5.413938 15.144192 -1.392236 
4.562785 2.071839 1.471645 
-8.937009 12.002121 -1.350725 
4.466101 6.107052 -3.253733 
-7.827630 8.568796 -3.574350 
6.242100 14.351409 -1.184391 
-7.183122 0.535392 -1.273102 
-7.817696 19.741024 -4.932748 
-1.397632 4.722506 7.420796 
6.344990 15.503040 0.614999 
-1.944668 9.303591 6.999869 
5.699905 10.786962 -2.740577 
-9.202166 6.405339 2.540058 
-3.449100 1.751993 -6.826451 
-1.245066 18.459904 -7.614784 
-1.176669 5.030330 7.105588 
-8.677311 20.133917 -3.712623 
-2.640560 13.513012 -8.130745 
-3.408692 4.269971 6.970464 
4.763453 6.261294 -1.383462 
-8.092933 16.481083 -4.199798 
5.541837 11.861904 3.270875 
-2.201568 3.079840 2.602999 
3.630641 3.544498 -2.915458 
4.345629 12.031166 3.630914 
-9.007977 17.508263 2.532542 
-9.732401 18.699730 -2.715183 
0.579292 8.325218 -7.515518 
-4.347572 5.888215 -6.273436 
-9.094308 13.025140 0.752199 
2.502851 7.138505 -5.985857 
-1.253764 17.149649 7.525425 
-5.007313 0.534684 3.582882 
-4.376865 3.079840 -1.366925 
-8.159507 11.479045 3.409865 
-9.175461 6.885178 -1.530611 
-0.587590 3.079840 -4.590254 
-2.588945 7.096656 7.782109 
4.481761 9.128443 4.789765 
-2.697325 3.079840 3.083588 
2.162597 0.534206 -1.458689 
4.905615 1.277812 0.244710 
-3.901354 10.196974 6.765985 
-9.180436 18.821127 3.967807 
3.304617 5.699457 -4.300417 
-4.492551 18.252316 -7.883833 
2.045960 18.621500 7.334427 
2.107980 6.089416 6.218982 
1.867136 3.079840 -4.070783 
3.778697 0.849632 3.496094 
4.740094 15.691990 3.436429 
-1.895185 12.315973 -8.125525 
5.502547 4.810756 -0.379911 
5.688843 19.591915 -3.515655 
-1.370153 5.592004 -7.499840 
-4.637072 13.155746 7.436120 
-6.536426 11.439682 5.421396 
4.311782 1.608149 2.802341 
-7.626175 14.973341 -4.648849 
-0.598254 1.053451 6.733602 
1.367618 20.266802 7.700699 
-0.831163 12.077869 7.793444 
-7.164606 9.096094 -5.936101 
6.362905 16.767084 0.772881 
0.628212 17.972368 7.186253 
4.029941 18.456207 -4.853366 
-5.519944 20.521908 6.960816 
-3.983708 4.640316 -6.074297 
-7.788928 3.086560 1.853686 
-7.658937 4.602710 -4.530974 
5.999562 12.718498 2.093067 
-0.908700 3.079840 -2.065951 
-3.674004 16.755951 -7.304823 
4.719369 1.545803 2.419134 
1.839113 4.757769 5.359129 
-5.728428 18.303997 6.584437 
-3.995231 5.694854 -6.384876 
-8.716386 11.191422 -4.263268 
-9.486210 6.875269 1.386433 
-7.368843 3.394076 -2.900718 
1.746326 3.856209 -5.084230 
2.628859 8.541606 -6.132878 
-5.527338 19.328583 7.487113 
5.019157 15.839043 2.866367 
2.815851 3.952490 5.333987 
1.217784 10.298092 7.413757 
-6.333351 10.442868 5.497832 
-6.315254 8.829659 -5.362231 
-1.196455 0.531428 -1.385680 
-9.323661 16.735382 -1.027807 
-6.833998 12.341817 -6.431344 
-5.613290 0.533980 -1.582332 
-8.071636 3.187022 -0.263733 
0.580056 19.739147 7.970809 
-5.410645 19.627228 6.860137 
5.961170 13.768036 -2.351574 
3.218806 19.129778 -5.764146 
2.952131 3.515889 -5.162447 
-7.993232 19.135506 -5.640086 
-7.398534 10.573426 -4.440415 
-8.550242 4.726130 -1.641765 
0.706465 11.823967 7.680717 
-3.556478 15.032055 8.046738 
5.884798 10.253674 -0.163838 
-1.490091 12.215143 -7.196919 
5.155840 12.578486 -4.102446 
3.243414 13.294344 -5.186857 
6.114988 11.855433 -1.350420 
-0.738530 16.721235 -7.436617 
-1.142394 5.963796 7.182691 
4.898051 11.656554 2.363818 
0.997366 0.532855 0.693103 
-1.169536 17.698896 -8.264246 
-8.741405 17.863262 4.654751 
3.506212 3.079840 -0.625664 
2.202088 3.362263 5.762685 
-1.102406 6.078655 6.716347 
-1.637176 15.406718 -8.229486 
-8.640224 10.996367 4.368040 
-5.578306 16.263744 -7.377783 
6.098474 19.533182 2.443964 
-7.114398 7.879586 4.479698 
3.114403 9.330404 -4.919792 
0.633485 3.079840 -2.513612 
5.788551 5.570213 -0.678793 
-5.108992 4.657345 -6.651664 
4.361049 9.022060 -4.934155 
4.289757 3.728575 0.960664 
-1.328497 10.583457 7.072414 
5.038748 8.619217 -0.772170 
-8.590470 4.955419 1.684450 
-10.169052 18.521093 0.498355 
4.226254 12.410948 -5.378897 
-9.846836 16.771336 -2.184781 
-8.903721 3.741277 0.815387 
5.089831 1.874341 0.833977 
-0.484639 11.073744 7.940857 
-6.282396 17.745907 -6.176872 
4.100743 7.971344 3.473373 
4.403745 5.961148 -2.495667 
-2.492417 3.079840 4.767237 
-8.140328 7.967696 4.774691 
3.231657 17.457285 -6.533801 
-9.422498 9.517735 -2.583404 
-9.735390 20.527637 0.537579 
-0.403243 0.531550 -0.774758 
-6.496225 8.039888 -6.382359 
5.221959 16.724005 -2.505906 
4.673362 19.030184 4.020547 
-4.790671 15.183361 -7.629308 
-6.859961 14.630373 -5.428693 
4.126559 17.029545 -4.581767 
1.546794 13.139024 -6.419688 
4.630613 2.280166 -2.632600 
-7.446235 9.968857 4.315354 
4.547807 16.375492 -3.878828 
-3.679427 5.145758 6.425628 
5.364411 5.044756 2.479223 
-8.826767 12.040317 4.162417 
-7.558787 17.912632 -5.044982 
1.483551 9.387512 7.232139 
-8.914542 13.124937 -1.809890 
-0.032434 0.532593 -1.970238 
1.769812 8.193654 7.005953 
0.680053 6.124993 -7.304272 
3.884684 20.249832 -5.211766 
-2.824478 6.886127 7.740693 
1.233924 5.175922 -5.912717 
3.891486 14.677916 -5.851347 
-0.452716 14.713944 7.248961 
-4.834810 3.903852 6.442444 
-1.721798 9.520717 -7.979486 
6.140397 14.604510 -1.780317 
-1.902565 3.079840 4.671148 
4.655563 5.660296 3.993870 
4.103985 11.851822 5.471236 
-1.972177 7.884761 -7.876756 
4.608770 8.640738 4.558861 
-3.144475 15.598588 8.137886 
2.479164 11.532259 6.746811 
-7.117559 7.522779 -5.842101 
4.722249 2.083054 -2.381164 
3.402615 6.650618 -5.719594 
1.294422 0.533221 0.985563 
0.713258 0.532533 -0.491276 
-4.145324 17.611609 -7.973294 
-8.568731 12.063986 -4.569369 
5.148997 10.277791 -0.880270 
-5.191957 10.178003 -6.232769 
2.457575 5.018966 5.807270 
-4.164996 3.079840 4.715008 
6.302476 19.266388 -1.629271 
5.254506 4.491294 0.207585 
6.117911 20.491833 2.348968 
2.419262 13.160353 5.876873 
4.058662 9.661972 5.357008 
-3.914628 1.671147 6.496059 
-2.152999 18.682911 8.310457 
-3.739251 2.385634 -6.762844 
-8.092680 14.287193 -3.916306 
2.955523 10.104405 5.149523 
5.774046 18.824514 3.286760 
-1.297168 8.014425 -7.725852 
4.797671 1.844871 -2.160697 
6.346060 14.932745 0.199344 
-2.758265 0.532295 2.229245 
5.449044 19.193478 3.972121 
-2.496799 6.936737 6.796646 
3.795891 4.296403 2.652631 
2.131347 9.877219 6.932813 
-2.938518 3.079840 -3.038773 
1.549335 6.424099 6.969612 
2.856538 3.114286 -4.021553 
-7.046085 5.043688 -4.640985 
-3.259287 0.535793 5.689802 
-9.103395 15.358349 3.926334 
-1.349353 0.532277 2.315866 
1.618767 4.484836 5.282233 
3.171970 1.199183 -4.810690 
-5.362166 4.584455 -6.449805 
4.750597 14.957369 -3.308077 
-9.188888 7.268351 -1.555881 
4.842069 6.660323 3.224440 
-2.674296 10.376117 7.032382 
4.751991 18.129625 5.015141 
-4.308634 1.183425 6.518084 
-6.527480 6.457881 6.209771 
3.466347 11.190866 6.057108 
4.396040 14.652130 -3.897083 
4.391303 10.029371 3.248171 
-2.278029 20.456999 8.336759 
1.278838 14.626442 7.583658 
5.214467 11.642198 1.096947 
5.574435 15.617765 0.073253 
4.168829 15.740996 -4.370493 
-0.454994 1.239745 -6.823657 
-5.388037 5.764811 -5.741515 
5.010059 13.850698 2.502478 
-8.661481 3.130904 -1.873605 
-6.059481 8.993615 6.748419 
-8.628218 14.223358 -4.630445 
-1.072417 0.535253 -5.269421 
-6.220052 3.079840 -1.312296 
-6.379774 20.530441 6.621056 
0.219007 0.536210 5.908108 
4.872840 5.955788 -0.340219 
3.812861 9.045913 5.562904 
0.733621 12.771496 -7.718422 
0.765953 0.533282 2.107091 
-6.625847 8.361572 -5.040789 
-3.998999 12.092062 -6.875890 
-8.144098 20.525515 5.395715 
3.498531 13.467212 4.937813 
-9.277166 15.145885 3.578669 
-9.863147 16.368330 -2.080373 
5.998748 14.989639 -2.375424 
-4.493538 11.080214 -7.376940 
2.745492 4.617887 4.454515 
-7.550548 19.222992 -5.185780 
-8.994615 14.512817 1.889760 
-2.882395 17.956902 -7.541442 
-3.236658 7.599773 7.735518 
3.970180 19.201031 5.007256 
0.839186 15.917466 7.791348 
2.648839 2.023156 5.357688 
3.856477 11.201609 -4.261885 
1.672940 7.875123 -5.919010 
-1.378253 19.247784 8.316087 
-2.713663 16.201622 -7.437696 
0.990319 6.484141 -6.159064 
-6.872756 11.872450 6.371010 
-2.715891 14.332857 7.307308 
-10.055245 15.920525 -1.010002 
-0.056378 0.925589 6.476847 
-1.009715 6.225099 7.006894 
-6.254761 1.240015 5.432332 
-5.566113 19.806120 -6.791172 
-2.068398 5.631731 7.690431 
5.129412 11.819095 -1.605504 
-2.075891 8.176617 -6.914155 
-9.046775 13.030046 -1.129631 
-1.418689 5.623905 7.583229 
-4.255942 12.951125 6.856044 
2.772171 3.079840 1.577054 
2.447268 16.446117 -7.042093 
-2.703828 4.765363 -7.442843 
3.902972 10.463224 4.107731 
-8.114079 13.290662 5.252379 
-6.211311 14.756563 6.967806 
0.535982 20.456963 -7.417619 
3.459746 4.600951 5.060040 
5.677169 17.123928 0.126359 
3.168056 20.530449 6.205711 
3.529455 9.901519 -5.909861 
-6.935448 18.857889 -6.604233 
4.470712 18.682861 -5.382367 
-4.764120 11.571254 6.548720 
-8.627201 6.589593 -0.747350 
3.491412 5.104270 -3.971191 
-8.683864 15.240383 2.928598 
-1.163427 0.534425 4.454043 
-6.383536 0.534719 1.615313 
-3.723352 1.789770 6.759726 
-8.658891 6.971465 0.724813 
4.895281 20.530441 4.615944 
0.031008 5.662889 6.450204 
4.013675 13.897780 -4.367613 
-6.079940 12.551064 -5.879731 
-1.182198 9.247820 -7.714518 
5.881452 6.771784 -0.760504 
-9.469212 12.090721 -1.822566 
-6.495597 16.528828 6.848721 
-2.735766 3.079840 -2.116184 
1.917856 16.501802 6.484229 
-9.923948 18.894728 -2.094750 
5.480981 5.961452 2.364124 
-8.435888 3.167413 2.552595 
-8.973337 11.019166 -0.531869 
6.204268 19.395374 -2.063053 
-4.026623 8.340178 -6.587225 
-4.291833 2.408956 -6.188156 
5.564183 20.028786 2.183869 
2.271618 9.223042 -5.638282 
-6.451097 4.415778 4.317274 
-8.167363 19.393684 -4.437224 
-8.887406 16.300917 4.347648 
-1.272288 0.534043 -4.087679 
-4.059329 2.055877 6.375855 
-7.871670 15.583093 -4.401288 
0.480619 19.215063 -7.988907 
-7.297050 0.927094 -3.970916 
5.017767 18.251049 -3.274904 
2.152447 12.172847 -7.049808 
-3.645812 12.836771 -7.032251 
-9.362726 20.530441 -2.561716 
5.082696 13.909844 4.311210 
5.556602 16.606913 -1.148196 
3.132656 13.883397 -5.347190 
4.815709 18.273525 -3.673364 
5.075440 2.201406 0.963803 
2.271965 12.523306 -5.927315 
-6.597325 1.699524 4.234290 
3.003999 10.435710 -6.387255 
4.205481 19.330357 -5.699084 
-10.108057 15.834200 0.289496 
-1.037477 19.520645 -8.292152 
-0.396774 14.372610 7.213299 
-0.109999 0.917832 -6.484543 
-4.250732 15.904094 7.076556 
-8.520982 6.044099 1.189132 
5.241763 19.400074 2.971783 
5.258983 14.518785 -4.063457 
6.166798 10.730350 -0.453685 
4.464285 0.633881 0.874209 
4.700418 5.746367 1.471534 
-8.823819 10.566792 1.405308 
-9.226575 4.612856 0.147502 
-9.338812 7.806139 2.486516 
-7.525442 3.523224 -2.596851 
-3.082670 14.771384 8.121386 
-2.331988 0.563508 -6.292094 
-6.017881 0.534178 -0.988220 
2.469615 10.262675 -5.584782 
1.611586 4.064726 5.191131 
-6.497790 4.752926 -4.584898 
-6.644645 17.899151 6.786691 
-3.522270 16.294334 -7.307638 
5.091560 11.431024 -1.646888 
0.339427 5.278594 -7.337608 
-7.405926 17.353745 -6.164187 
-0.147809 17.634546 -7.386044 
-7.675357 18.007891 -5.934518 
-5.429168 11.698687 -7.271070 
-4.735814 15.069796 7.595072 
1.177090 0.534135 2.916342 
-9.343616 11.403440 -1.824071 
6.046155 9.747692 -1.117138 
-5.617251 13.260804 7.247311 
0.502590 9.913343 6.632723 
4.094382 3.781974 -3.824334 
-8.691579 15.978561 -3.036082 
3.855834 7.517503 5.373148 
0.365723 9.629343 7.666303 
3.869219 17.395580 -5.976912 
-10.163895 18.155764 0.410402 
-9.857180 18.462868 -2.295843 
-8.803324 18.621033 -3.231831 
-1.596452 3.079840 6.109303 
6.463613 19.567308 0.195947 
-8.805925 16.001415 -4.463282 
3.612400 3.079840 -1.372368 
0.242730 3.079840 2.297627 
5.055017 12.351124 2.034302 
0.151286 16.496651 7.230023 
4.246485 6.184830 -4.746262 
-8.814754 1.903438 -0.949866 
4.814728 5.688035 -0.762373 
-1.592079 17.499393 8.283152 
-3.233675 14.007825 -7.207938 
0.408897 3.548643 -6.692693 
-8.372135 9.755997 4.645664 
5.883918 8.173480 -1.483676 
-6.300911 5.358425 -6.259502 
2.228608 20.230394 7.276878 
-8.995872 16.254211 -2.300828 
1.230552 5.261312 7.006779 
-8.991289 18.961475 2.860642 
-3.814777 13.067392 7.004274 
-1.551258 10.425321 -7.072706 
2.351438 9.124035 6.095012 
-7.761203 11.716181 -4.092552 
-9.527052 17.269863 3.164544 
5.477389 14.298373 -0.248265 
-9.717573 7.473846 0.117943 
5.234530 15.026564 4.141790 
1.833796 16.111034 -6.500582 
-1.309847 11.015844 -7.101288 
-3.261038 2.780231 -6.891327 
-8.863896 3.466186 0.979077 
4.974807 12.462875 2.321464 
-8.831450 13.958841 -4.297819 
2.372598 9.867974 6.482666 
-9.915786 19.668329 2.193893 
-1.182775 6.499949 -7.324568 
-9.593935 6.751007 1.000643 
-4.531787 0.536065 -5.514056 
-2.340779 0.913909 6.699204 
2.402617 3.079840 -2.409455 
-9.190864 12.446116 3.533998 
1.914456 2.899263 5.928283 
-9.886715 15.121889 1.826705 
5.600797 6.400748 0.304848 
5.595393 18.131538 1.534255 
-9.237090 12.770774 3.467184 
-8.934749 5.671376 2.043918 
6.423082 18.502409 0.602326 
0.224811 3.079840 3.010823 
4.782277 9.726418 -2.284024 
-7.467765 16.903219 -5.040325 
0.645108 3.079840 -2.196394 
3.108305 9.730007 6.252909 
5.054549 1.737049 -1.077641 
3.941235 11.919975 4.230772 
-3.048833 10.919898 7.967494 
-0.640647 6.925719 -7.442179 
-4.020123 3.079840 3.673922 
-9.291303 18.106590 -1.708767 
-5.349347 19.953499 7.582859 
-10.006664 15.466269 1.256223 
3.857281 8.088209 -3.876300 
3.606242 16.087727 -5.088818 
3.375078 0.536181 -3.376274 
0.720759 4.310566 -5.697446 
0.996108 17.409863 -7.005898 
-9.353451 18.024113 1.389567 
4.655126 0.833046 1.142056 
4.951125 8.280669 1.211540 
-8.752490 20.380011 -4.734213 
-9.025167 6.823637 -2.020511 
0.133310 11.277479 6.854816 
4.759351 8.906225 2.162297 
-5.333329 13.100034 -6.391006 
-8.329154 10.894119 -2.975776 
5.663898 19.771851 -1.732604 
-5.753328 20.508486 7.342512 
-6.992645 15.513248 -6.448275 
-9.516266 7.168837 -1.396676 
-8.081242 1.354598 1.715040 
-1.869799 3.079840 -3.195128 
-1.894935 11.079924 7.127881 
-2.766133 12.469576 8.078457 
-8.832783 5.980318 3.341447 
6.364603 17.613111 -0.985940 
-7.339514 11.469810 -5.949230 
-7.616078 10.684362 -4.169668 
-1.703019 13.210869 -8.156557 
4.104244 7.621634 -3.415440 
-3.501574 12.408850 -7.960875 
-0.423880 11.384092 7.004564 
4.818956 1.279139 1.174873 
2.737735 17.941910 6.054393 
0.053890 5.252481 7.417679 
-1.328666 5.919586 7.479037 
-8.830106 18.281687 3.116553 
-1.067706 5.031371 -6.928716 
-3.144830 0.535333 -5.254731 
-0.947830 10.856658 -7.055290 
1.281724 3.079840 1.821834 
-6.242943 8.517636 -6.598431 
-2.115065 5.286545 -7.659676 
0.746627 17.806376 -7.875701 
-5.382141 15.935606 -7.461848 
-6.300365 20.320415 6.380227 
-7.126891 1.684380 -4.175672 
3.464504 20.201851 5.635133 
3.927771 20.127245 6.007013 
-0.301295 6.295771 -7.589488 
-5.693375 12.168240 6.106393 
-9.203831 6.256919 -2.500009 
6.292474 20.131470 1.755898 
1.457893 3.079840 2.537995 
3.090108 20.186354 5.966046 
6.240335 18.230215 -1.795549 
-7.980619 3.009182 -3.495565 
-5.087194 19.419621 7.000840 
-3.754606 3.117627 6.788019 
-3.774912 1.460058 6.749307 
-1.217161 17.588543 -7.551905 
-8.158789 15.382238 -3.953599 
0.722971 20.529778 7.831305 
3.394890 16.204199 -5.321893 
-1.614832 7.466752 -6.860991 
1.052122 19.528507 -7.141174 
-2.964827 3.079840 2.640120 
-6.976103 15.286209 5.382135 
3.722697 3.079840 1.410189 
2.067719 0.535088 -3.338187 
-1.175427 6.189596 -7.268479 
-9.194126 15.689016 3.775593 
6.199244 12.427258 0.976706 
-6.593482 11.680442 6.566372 
-5.797936 3.765109 -5.897237 
2.467399 4.993112 -5.029119 
-1.607889 7.119880 -6.834149 
-8.312777 3.299915 2.865051 
1.998667 9.436958 5.850655 
-4.040468 2.271770 6.619002 
-1.271528 1.262184 6.858496 
-4.151313 3.079840 0.721287 
-6.262055 14.064525 -5.878937 
2.618665 0.535792 -3.760117 
-9.517490 10.534321 -2.471637 
-2.374966 16.022013 -7.457678 
-5.249629 3.079840 4.659636 
-8.827688 3.831553 1.361986 
-5.666916 6.093916 5.595673 
-7.425313 13.492809 -4.730804 
2.996441 15.054876 5.585353 
4.478255 19.005680 4.323044 
-8.867506 18.569281 4.487814 
4.051810 0.535862 0.132369 
-9.689447 20.487652 2.865479 
1.669949 0.533488 0.528945 
-4.024832 1.766714 -6.194255 
1.905424 0.535658 4.302966 
-7.363286 12.283396 4.672635 
-6.781947 20.156015 -6.749303 
-4.349343 17.409096 7.151403 
5.958338 9.291896 1.468892 
5.134341 19.109406 3.160186 
-3.997357 3.265727 5.835970 
-1.134043 2.244338 6.562465 
3.864491 15.261783 4.708541 
-9.545933 18.037136 3.169281 
-7.532503 14.873975 4.751365 
2.856306 12.481036 -5.468490 
-9.149628 9.226595 1.888467 
-9.045803 13.993623 1.513921 
-6.327805 9.269329 5.392946 
1.992597 7.467041 6.831758 
-1.974513 0.531566 1.672937 
4.938070 8.471559 3.343689 
-6.801589 2.087430 -4.775278 
-8.047562 13.952931 -3.945155 
-4.141230 3.079840 1.419702 
-7.086342 4.891840 -4.939306 
-1.438690 3.079840 0.202394 
3.483943 17.418840 -5.353567 
